ply
            format ascii 1.0
            element vertex 55286
            property float x
            property float y
            property float z
            property uchar blue
            property uchar green
            property uchar red
            end_header
80.087869 61.884276 72.467667 79 53 47
77.779797 82.469950 72.301012 55 19 9
78.076114 81.077019 72.955090 29 12 9
78.147973 81.735573 72.491270 187 120 99
78.147973 81.735573 72.491270 187 120 99
80.758902 62.363742 72.357708 151 119 100
86.688915 -22.918522 89.452940 60 49 65
87.021708 -29.031046 91.344029 56 52 63
78.258237 83.251194 72.203356 184 115 95
78.339241 84.054468 71.843487 25 15 8
81.222936 61.809013 72.506601 86 58 51
82.424307 47.229429 74.834496 66 55 58
78.658091 82.508997 72.295171 56 13 16
87.229902 -26.488241 91.004974 37 33 45
86.988075 -22.544291 90.195233 104 101 103
87.337158 -26.216754 91.253167 94 95 99
81.350373 66.642172 71.693856 83 54 47
87.935841 -28.947803 92.274791 45 42 57
84.248441 44.090983 75.608665 118 88 77
84.367578 44.898022 75.400025 71 46 42
84.497609 47.829866 74.835116 76 50 44
88.850678 -22.659766 91.810256 39 36 51
88.724226 -22.373816 92.373782 74 70 81
83.653682 62.360588 72.290164 146 113 97
84.537785 51.323748 74.292260 73 45 44
83.492707 65.399746 71.902019 81 52 47
84.717879 48.396479 75.482804 140 104 86
85.145229 44.718000 75.972611 73 50 42
84.486653 54.860301 73.778540 71 43 43
83.710526 65.880270 71.755010 143 109 93
89.717166 -28.612121 93.569809 32 28 40
85.055285 47.871029 75.646454 78 51 47
84.895175 51.924542 74.788862 139 106 90
84.622711 55.427269 74.281293 136 104 85
84.806926 58.974702 73.743063 131 99 80
85.144712 54.832841 74.527174 66 44 46
85.203058 44.347999 79.152232 118 89 80
90.424292 -28.586175 94.453889 34 36 46
85.874249 44.326318 77.899891 118 89 80
84.664016 68.918798 71.298677 60 39 37
85.881620 48.506852 76.292354 141 105 89
86.686915 37.719471 78.475171 63 58 67
86.085992 48.017360 76.086169 78 49 44
85.932469 52.067668 75.120527 128 97 82
86.744094 44.300304 76.276094 118 89 80
87.216406 36.009018 79.312760 64 59 68
90.772240 -24.689721 94.503123 80 79 83
85.870245 59.102274 74.129754 121 90 75
86.158959 55.027435 75.158483 60 39 37
86.424856 48.167387 78.014666 67 42 38
87.061551 44.402879 77.549511 115 86 81
86.491392 51.625211 76.633173 61 41 36
85.485439 69.055099 72.266465 60 41 34
85.320537 72.997091 71.094185 123 88 74
86.253418 62.062988 73.717338 60 39 38
85.465295 72.531293 71.762782 61 42 35
87.080200 52.120567 75.818902 129 98 83
91.011246 44.122172 67.587858 122 93 84
-144.359079 11.694572 -90.880132 83 64 67
-147.548905 18.092251 -90.035909 81 51 46
-144.675103 -54.701187 -86.009556 76 49 58
-144.177142 9.983628 -89.877981 66 60 65
-144.177142 9.983628 -89.877981 66 60 65
-160.756722 -136.792722 -78.951877 255 235 217
-140.204826 -61.351904 -85.742903 101 65 71
-160.322753 -139.159908 -78.540641 255 234 219
-148.151103 11.675619 -88.932484 75 67 78
-160.047737 -137.448563 -78.009063 137 84 47
-159.604588 -127.987339 -78.508919 145 84 64
-144.003287 -55.787470 -84.756416 104 85 94
-159.601036 -136.029937 -77.389020 255 226 221
-159.513345 -138.561060 -77.031106 255 231 221
-139.548293 -101.903047 -81.416053 224 177 126
-157.542315 -122.817244 -77.594417 173 122 79
-140.609804 -57.968005 -83.577001 187 138 124
-143.968740 -62.053772 -82.423091 106 66 71
-143.985739 10.703035 -86.821920 42 45 59
-143.513122 -106.882861 -79.243797 154 110 63
-157.128897 -121.337726 -76.172143 202 148 117
35.741916 35.906191 -111.091286 96 72 48
-144.066134 -55.461981 -81.217498 64 57 64
-149.855486 10.687017 -84.395880 63 56 59
-150.586239 9.939077 -84.099656 102 104 104
-145.567861 -61.760738 -80.223328 97 60 62
-150.022832 12.414046 -84.172982 74 64 76
-145.307437 -60.830834 -79.923564 158 120 102
-151.522461 12.362976 -82.139641 77 71 82
-151.522461 12.362976 -82.139641 77 71 82
-142.854992 -104.025211 -75.897950 162 119 70
-146.602431 -30.918761 -79.341263 92 63 58
-146.602431 -30.918761 -79.341263 92 63 58
-147.173610 12.782255 -81.728083 77 68 78
-147.173610 12.782255 -81.728083 77 68 78
-136.911693 -96.405151 -75.682420 70 63 70
-136.911693 -96.405151 -75.682420 70 63 70
-144.462267 19.495877 -81.900448 83 51 45
-134.265724 13.927227 -82.714945 77 68 78
-147.939387 -68.405976 -75.426549 51 31 20
-144.926777 -103.922286 -73.441035 154 105 65
-144.909468 -103.902497 -73.441905 154 105 65
-149.376526 -50.807097 -75.767928 51 39 39
-149.376526 -50.807097 -75.767928 51 39 39
-149.703589 20.457792 -80.006057 80 52 45
-149.364343 -111.986973 -71.498638 194 145 95
-144.539705 11.217175 -79.914623 59 56 71
-144.539705 11.217175 -79.914623 59 56 71
-148.675624 -69.147541 -73.213416 51 28 20
-148.756090 -56.112661 -73.615712 127 92 82
-148.756090 -56.112661 -73.615712 127 92 82
-140.917435 20.573263 -79.708284 116 88 77
-147.740689 -54.564228 -73.677391 43 44 54
-142.267671 19.452660 -79.106575 96 64 51
-141.805115 21.082731 -79.169875 85 56 51
-153.613558 -113.325789 -67.951399 209 157 121
-152.140060 -112.017872 -68.094844 220 171 127
-152.769032 -111.760034 -67.000860 197 146 114
-149.731079 -105.056109 -67.837530 136 88 46
-141.686764 7.360873 -76.430374 75 58 67
-144.275132 -47.872122 -71.683055 69 63 74
-144.250670 -50.006267 -71.509141 66 56 68
-163.510409 -77.159991 -66.390544 54 32 21
-141.361466 -20.182975 -73.198658 168 129 107
-145.732775 -99.627950 -67.170447 193 152 103
-144.881621 -99.264326 -67.268056 193 152 103
-142.352286 -53.776022 -70.525831 60 56 68
-151.546565 -102.778997 -65.473562 169 110 84
-141.542712 -31.512459 -71.510416 71 43 43
-140.752473 3.705717 -73.887450 174 139 119
38.258415 42.032339 -106.134272 87 94 43
-139.404431 -27.200993 -71.344775 131 92 78
-140.653935 -6.469756 -72.521776 169 136 121
-139.285818 -19.235527 -71.706218 159 121 109
-140.082780 -16.436886 -71.617693 116 95 104
-135.969654 7.881870 -73.947090 63 47 58
-138.040343 17.124985 -74.028009 110 71 62
-138.524190 -0.317676 -72.147030 69 36 33
-139.355102 6.214686 -72.331196 174 128 111
-139.355102 6.214686 -72.331196 174 128 111
-132.637754 17.482098 -74.208003 103 67 61
-138.407961 -20.223775 -70.616621 115 77 72
-138.865963 -11.704843 -70.910388 149 119 108
-135.115042 -15.664040 -71.262163 113 99 101
-140.360394 -2.583208 -71.174699 132 105 84
-138.272682 -19.424423 -70.298272 156 122 109
-135.266963 12.831389 -73.012298 96 75 74
-134.292474 24.483436 -73.961943 102 66 60
-139.084879 -14.355012 -70.383710 52 33 30
-138.899437 -11.314877 -70.621115 68 38 33
-138.899437 -11.314877 -70.621115 68 38 33
-137.702504 -23.864936 -69.753581 116 74 61
-138.862482 -7.951587 -70.550543 172 131 116
-140.393272 -45.165654 -67.386609 165 130 120
-140.350571 -45.177587 -67.391986 165 130 120
-139.632073 -54.115953 -66.786140 58 37 45
-140.207949 -48.675849 -66.931278 160 127 108
-142.177215 -16.994231 -68.641585 121 101 106
-140.272251 -52.525779 -66.405171 151 116 103
-137.554494 -6.311622 -70.021230 68 39 30
-136.716118 -22.645324 -68.966907 83 55 54
-133.402506 20.578957 -72.499102 151 118 99
-136.083618 -22.930091 -68.982881 158 125 110
-135.850897 -19.142907 -69.107121 122 78 65
-135.828558 -17.545971 -69.202596 103 68 55
-140.374675 -17.685281 -68.284887 118 96 98
-140.374675 -17.685281 -68.284887 118 96 98
-139.029756 -45.182278 -66.574353 67 38 24
-139.029756 -45.182278 -66.574353 67 38 24
-132.419100 18.762781 -72.113222 106 66 54
-136.469355 -24.052545 -68.227404 120 74 67
-134.727827 -19.366410 -68.771774 151 114 100
-136.191621 -0.502490 -69.795853 185 139 121
-170.695463 -85.281529 -57.491821 71 58 50
-134.633699 -18.237045 -68.530899 166 127 112
-133.996430 -23.658984 -68.160027 120 74 66
-135.059062 -23.033892 -67.892557 165 129 113
-135.059062 -23.033892 -67.892557 165 129 113
-137.835279 -46.334054 -65.615648 187 143 126
-136.521211 -16.106235 -67.950708 122 99 103
-136.150756 -11.445244 -68.291658 180 137 120
-136.150756 -11.445244 -68.291658 180 137 120
-133.844391 -17.219620 -68.105298 101 62 53
-133.844391 -17.219620 -68.105298 101 62 53
-136.005417 -15.266641 -67.777961 72 53 62
-133.594480 -18.439271 -67.725259 132 88 75
-134.712425 -22.789740 -67.115635 163 126 112
-132.172361 -24.748322 -67.396945 138 92 81
-133.586565 -22.094651 -67.239791 90 58 59
-135.042968 -58.315494 -64.381307 128 100 93
-136.427608 -16.143229 -67.076081 125 104 107
-133.228722 6.922025 -68.984717 175 132 115
-130.243102 -15.080117 -67.816836 125 104 107
-135.841528 -35.678979 -65.134782 190 147 128
-135.841528 -35.678979 -65.134782 190 147 128
-133.187404 -55.286618 -64.013559 96 60 54
-132.857552 -23.279851 -66.198856 122 82 70
-134.456626 -7.384329 -66.990894 177 137 119
-134.456626 -7.384329 -66.990894 177 137 119
-135.991016 -42.347034 -64.208800 189 143 125
-134.073272 -58.714541 -63.193125 115 90 86
-132.043257 -19.187459 -66.384166 104 67 59
-131.825247 -18.113058 -66.401297 124 82 69
-129.954305 -15.104287 -66.690558 122 103 106
-131.488767 -17.414074 -66.107374 117 83 77
-131.488767 -17.414074 -66.107374 117 83 77
-128.294173 8.747933 -68.306154 65 47 60
-128.294173 8.747933 -68.306154 65 47 60
-132.472959 -55.220439 -62.852043 100 64 58
-129.111972 22.669913 -69.006282 89 54 44
-133.492318 -31.760725 -63.766474 175 136 122
-132.420245 -55.852713 -62.239486 119 78 63
-132.420245 -55.852713 -62.239486 119 78 63
-128.701749 26.089595 -68.834597 106 64 51
-131.476584 26.451634 -68.180555 164 128 110
-126.088229 -64.331796 -62.341660 44 25 18
-133.490005 -44.095232 -62.161118 137 108 99
-133.485714 -44.961067 -62.088245 156 119 99
-133.485714 -44.961067 -62.088245 156 119 99
-129.207411 -15.717506 -64.959198 88 62 75
-133.875957 -45.860007 -61.821336 187 143 126
-126.010719 26.343361 -68.091601 99 60 52
-131.724206 -40.755161 -62.079090 64 29 25
-124.123231 -63.875058 -61.618036 50 27 19
-126.597944 26.796751 -67.674214 161 125 107
42.655978 56.859139 -103.371757 13 10 2
-123.630562 -63.500788 -60.836011 92 73 58
-123.630562 -63.500788 -60.836011 92 73 58
-128.132692 26.789658 -66.333121 166 131 111
-125.575796 33.743616 -67.104334 98 67 64
-128.813401 26.800795 -65.674001 167 132 112
-123.615399 34.352624 -67.228061 160 127 107
-128.038636 15.189400 -64.724094 97 80 84
-128.038636 15.189400 -64.724094 97 80 84
-124.820963 23.159081 -65.842432 85 56 49
-121.776429 -63.144889 -59.998947 106 85 70
-124.861541 13.854142 -64.838797 96 67 60
-124.861541 13.854142 -64.838797 96 67 60
-123.997036 33.886007 -66.491848 102 67 63
-122.265759 15.684964 -65.470678 97 80 84
-121.890250 -63.634016 -59.540147 44 23 15
-119.727054 27.329065 -66.327769 165 133 110
-121.555129 30.373204 -66.073817 110 70 65
-124.040833 15.575415 -64.140075 94 76 83
-124.040833 15.575415 -64.140075 94 76 83
-143.290177 -75.215801 -53.173274 177 145 122
-143.322244 -74.079313 -53.243607 174 137 123
-121.878996 37.652969 -65.943569 100 68 62
-142.198697 -73.111781 -53.308386 96 60 44
-121.729055 30.400100 -64.878649 103 72 63
-123.087683 37.765937 -65.076250 103 67 61
-144.349614 -74.387636 -52.031130 134 95 81
-144.349614 -74.387636 -52.031130 134 95 81
-142.105141 -74.875011 -52.416140 69 35 19
-148.121801 13.588437 -57.637924 101 87 93
-141.204372 -78.349151 -52.166551 104 76 69
-126.312962 22.834327 -62.922221 119 85 79
-129.478016 13.241484 -61.467141 67 72 81
-129.478016 13.241484 -61.467141 67 72 81
-118.925038 -63.098850 -57.876915 39 20 13
-118.925038 -63.098850 -57.876915 39 20 13
-141.634765 -73.841848 -51.720113 149 111 93
-124.071351 -46.167120 -57.486826 159 123 107
-141.342345 -76.053490 -51.486212 157 125 106
-141.342345 -76.053490 -51.486212 157 125 106
-141.291013 -78.401496 -51.279765 102 76 62
-117.760125 38.493312 -65.152854 156 123 103
-138.657060 -72.327360 -52.220875 91 54 34
-124.585143 -50.115242 -56.692797 96 61 48
-124.585143 -50.115242 -56.692797 96 61 48
-118.235174 41.598269 -64.991492 102 66 58
-114.373663 14.628691 -63.553435 67 72 81
-140.733185 -76.549485 -50.914222 72 36 18
-140.733185 -76.549485 -50.914222 72 36 18
-120.075265 13.250556 -62.161702 139 111 100
-124.100438 -47.831007 -56.436652 95 65 54
-118.740073 38.613429 -64.162129 158 123 103
43.830293 55.734418 -100.648856 12 7 4
-141.825762 -77.668562 -50.111490 53 32 24
-139.685479 -75.733759 -50.714988 139 107 88
-118.587390 27.610641 -63.099092 161 124 102
-115.923241 19.208700 -63.028938 160 119 104
-119.066539 23.777222 -62.548774 87 58 49
-121.096745 15.926001 -61.462778 101 87 93
-121.096745 15.926001 -61.462778 101 87 93
-118.564597 31.346030 -63.141078 156 120 102
-123.909536 -48.763599 -55.756754 112 111 121
-122.466198 -47.838398 -56.012112 69 59 71
-123.411337 -53.051766 -55.396706 115 73 61
-123.859945 -47.716721 -55.549377 113 108 117
-118.651119 24.691611 -62.108856 150 117 102
-111.897328 16.724346 -62.764889 101 87 93
-117.540208 27.753510 -62.350827 164 127 107
43.176708 56.825862 -99.979448 106 74 68
-137.304726 -79.162552 -49.336022 102 76 64
-116.802326 38.215155 -62.903744 95 63 58
-117.926684 14.366017 -60.774523 67 65 77
-117.926684 14.366017 -60.774523 67 65 77
-137.082830 -77.238574 -49.400574 124 90 74
-114.412954 44.621711 -63.513333 123 93 76
-121.399656 -51.103368 -54.359704 54 52 64
-115.616110 16.458973 -60.637861 103 89 91
-115.616110 16.458973 -60.637861 103 89 91
-115.297428 33.441739 -62.001783 126 95 80
-114.207914 38.879717 -62.633473 150 116 93
-138.213578 -77.024045 -48.247975 103 67 49
-114.702109 30.309779 -61.441952 125 95 76
-114.396957 31.688647 -61.613613 156 122 99
-114.020911 39.864915 -62.047237 121 95 71
-114.486459 23.573944 -60.521573 113 84 70
-114.486459 23.573944 -60.521573 113 84 70
-114.497927 34.534211 -60.890990 42 26 19
-114.497927 34.534211 -60.890990 42 26 19
-114.600506 46.327681 -61.477369 134 102 91
-120.223442 -51.140078 -52.514249 58 58 72
-115.728226 6.672358 -58.064312 147 114 95
-114.476994 42.761549 -60.975319 143 109 96
-119.370189 -48.750152 -52.632195 46 46 58
-114.310780 20.895428 -59.194487 52 30 18
-109.651640 -59.983554 -53.895336 85 67 50
-118.404046 -48.163047 -52.485663 45 45 59
-118.012992 -44.539960 -52.412981 69 68 78
-117.696300 -46.506497 -52.242190 73 65 76
-114.120868 28.257432 -58.978969 132 104 93
-116.568580 -43.182721 -52.674609 104 72 73
-117.642203 -47.521969 -51.868910 80 70 76
-116.553977 -33.069285 -53.253800 156 117 103
-114.045492 20.710830 -58.103186 115 86 77
-118.808952 -53.549077 -51.078755 142 107 93
-114.465132 22.214064 -58.037442 134 99 89
-113.007084 40.179323 -59.737653 132 94 82
-116.358867 36.374625 -58.621436 133 98 85
-115.050128 -19.334777 -54.446048 153 117 101
-113.297561 22.196973 -57.767552 160 124 108
-116.576436 -50.366279 -51.050872 65 61 73
-111.422828 42.375410 -59.657413 103 65 60
-113.356176 15.838856 -57.015532 142 109 94
-113.363090 19.997073 -57.336193 91 53 41
-111.490110 49.149365 -60.041708 147 113 100
-111.291018 46.595929 -59.866530 153 117 101
-111.777380 38.826489 -59.077090 100 62 58
-113.409868 17.873413 -57.005972 90 55 45
-111.639193 35.076617 -58.690757 103 66 62
-114.448360 23.206331 -56.698281 100 64 58
-111.587754 32.179435 -57.844692 166 129 107
-112.478641 3.117093 -54.962450 160 122 110
-111.390534 25.439914 -56.920654 154 119 105
-108.181301 53.334645 -59.926182 98 62 54
-114.108101 -31.869604 -51.623839 55 33 22
-114.108101 -31.869604 -51.623839 55 33 22
-112.381461 15.475398 -55.719715 104 72 61
-111.133698 32.681178 -57.381386 116 77 62
-112.037280 35.186759 -57.317692 102 67 57
-110.059157 53.988538 -59.296435 156 123 103
-109.177151 -61.806127 -50.144070 37 17 6
-111.789361 39.530116 -57.682425 158 124 108
-113.814738 -37.208547 -50.926954 59 34 24
-110.798934 24.793548 -56.552595 86 55 46
-110.798934 24.793548 -56.552595 86 55 46
-111.922410 27.916925 -56.388146 105 66 57
-113.880399 23.910722 -55.494779 132 98 82
-110.483757 39.000612 -57.542235 103 67 59
-111.924544 23.451951 -55.926961 99 63 57
-112.622121 -10.077938 -52.973062 153 115 103
-113.891307 -44.341501 -49.881679 49 30 23
-111.562350 42.604286 -57.464272 96 61 58
-111.897376 31.731653 -56.214005 102 65 57
-113.746110 -51.077273 -48.975343 48 27 19
-113.746110 -51.077273 -48.975343 48 27 19
-112.985662 -54.708507 -48.809630 95 74 73
-111.650339 28.051222 -55.599147 104 67 59
-108.128849 53.532059 -58.500201 96 58 53
-111.345008 14.421392 -54.501444 133 103 102
-109.034792 49.972702 -57.917517 98 63 59
-112.691405 -26.082166 -50.755113 153 115 103
-109.217075 54.234502 -57.780439 157 122 102
-113.597515 15.117078 -53.482562 68 74 85
-108.159772 53.009961 -57.888705 149 114 100
-108.081916 50.653291 -57.714790 158 122 104
-109.955469 24.861452 -55.032152 93 60 51
-109.955469 24.861452 -55.032152 93 60 51
-110.346749 32.352766 -55.543321 170 133 113
-113.269714 -47.499647 -48.229951 126 97 88
-112.215438 -37.568631 -49.220842 157 118 109
-108.909276 24.295014 -55.088407 136 103 87
-193.767872 -111.499371 -22.684461 255 235 224
-112.855604 -44.921096 -48.254234 146 110 100
-105.610409 32.543521 -56.320125 170 133 113
-107.790151 32.020995 -55.426425 104 67 63
-122.779480 24.185552 -51.014966 92 60 55
-107.953206 36.189274 -55.679291 162 123 108
-106.789580 28.391133 -55.166692 102 65 57
-107.714346 44.002066 -56.181985 110 67 58
-107.825473 46.426859 -56.315511 94 63 54
-110.256556 17.305327 -53.266805 92 82 94
-108.333495 50.773136 -56.504208 157 121 103
-130.167285 23.105539 -48.714310 138 105 90
-107.806996 28.926075 -54.663116 161 123 105
-108.781555 43.489823 -55.404323 161 125 109
-107.918611 53.853235 -56.381530 97 60 56
-104.534033 -60.591485 -47.652465 83 67 55
-110.448769 24.943729 -53.125852 92 60 55
-123.998538 24.174381 -49.613851 93 60 51
-119.879189 23.756782 -50.505894 138 105 90
-108.764496 32.574031 -54.065162 167 128 106
-107.821086 32.005569 -54.236263 106 71 58
-110.930684 -43.706241 -47.164530 84 61 65
-108.176830 36.238673 -54.495209 161 127 111
-110.803130 -45.117881 -47.052664 91 62 58
-111.314657 -51.361348 -46.228153 108 68 56
-107.949451 23.919995 -53.155464 98 60 55
-106.603256 35.741483 -54.390413 107 67 62
-106.986418 53.964723 -55.591995 97 61 55
-108.032075 32.128076 -53.500754 107 68 60
-106.877115 28.524049 -53.433925 102 68 62
-103.536084 54.388878 -56.409770 158 123 103
-108.685544 -6.158026 -49.994534 108 74 68
-103.882304 -60.605731 -46.639591 81 63 52
-103.882304 -60.605731 -46.639591 81 63 52
-107.326439 24.549025 -52.691740 138 105 90
-106.959251 46.722532 -54.587859 98 61 57
-106.959251 46.722532 -54.587859 98 61 57
-107.143250 36.355045 -53.670639 164 128 110
-111.754647 -51.277270 -45.079499 154 115 100
-103.997710 50.338579 -55.485517 100 64 58
-106.930199 25.249109 -52.596408 93 60 51
-104.594293 56.893436 -55.686992 144 113 98
-104.340521 54.606498 -55.553800 152 118 102
-109.197465 -49.484994 -45.226330 58 58 72
-105.439165 15.929715 -51.535040 70 71 85
-105.439165 15.929715 -51.535040 70 71 85
-104.518524 47.367942 -54.394466 150 114 98
-104.175463 55.132801 -54.997534 110 70 58
-105.418387 -61.826899 -44.768208 40 21 13
-104.452255 42.692069 -53.720206 158 125 109
-104.113081 40.296485 -53.592318 162 128 104
-102.812698 36.543240 -53.595048 169 129 110
-105.531803 25.411238 -51.774162 97 61 53
-104.054239 47.995076 -54.038912 108 68 56
-104.751685 29.247307 -52.273244 167 131 115
-104.350403 50.453890 -54.138464 100 64 58
-104.510227 32.996507 -52.442342 166 126 107
-104.107228 54.742739 -54.375559 159 124 104
-104.212537 40.836140 -52.988523 115 75 63
-103.919426 54.177276 -54.083246 92 58 52
-104.394987 47.482745 -53.384942 156 119 105
-104.749277 24.271024 -51.239425 104 66 61
-104.224828 26.325837 -51.526660 153 116 102
-104.335776 40.345845 -52.431089 162 125 111
-111.559287 -63.801613 -41.495186 78 63 47
-111.559287 -63.801613 -41.495186 78 63 47
-104.262486 28.771934 -51.116568 104 67 59
-104.260424 25.676225 -50.850791 97 65 54
-102.329960 32.611845 -51.353544 103 67 59
-101.798275 43.420658 -52.392346 102 65 61
-99.632254 60.912687 -54.410523 107 97 109
-111.462334 -63.996299 -40.368432 85 68 55
-111.462334 -63.996299 -40.368432 85 68 55
-101.478699 54.313300 -53.060871 95 60 56
-102.004281 29.524452 -50.550455 172 134 116
-101.247767 50.758661 -52.576834 101 63 59
-105.512014 -42.805483 -43.275887 76 72 84
-100.817063 47.142123 -52.193338 98 63 59
-100.422075 24.665880 -50.308639 104 67 63
-101.417294 40.043186 -50.965697 109 70 68
-101.621500 32.749788 -50.250059 113 73 68
-98.343197 -59.700020 -43.113071 85 68 55
-98.343197 -59.700020 -43.113071 85 68 55
-101.058307 36.307861 -50.608069 107 69 65
-105.643740 -54.101910 -41.533190 135 97 85
-100.953689 47.192680 -51.429969 160 128 115
-101.026455 53.517363 -51.603132 56 37 52
-101.026455 53.517363 -51.603132 56 37 52
-101.274839 25.245634 -49.080020 134 101 81
-103.123692 -9.945264 -45.113844 153 109 96
-103.123692 -9.945264 -45.113844 153 109 96
-100.216010 25.310324 -48.942775 127 94 74
-101.274148 24.360402 -48.527056 109 66 57
-100.422457 25.988711 -48.581523 89 60 53
-98.031858 -60.307189 -41.442221 34 19 16
-100.491145 53.000871 -50.300366 113 99 123
-100.859323 11.871460 -46.279210 75 51 59
-97.575918 59.852824 -50.661689 153 119 106
-100.161973 48.466141 -48.799568 162 132 115
-100.239888 45.196406 -48.323840 168 135 119
-100.239888 45.196406 -48.323840 168 135 119
-166.640201 -100.077989 -16.383833 155 119 103
-99.760798 30.713033 -46.953112 46 32 36
-99.760798 30.713033 -46.953112 46 32 36
-100.196424 40.113794 -47.658199 163 131 118
-98.727193 29.888732 -47.043592 111 93 100
-98.350814 24.239833 -46.480161 106 68 63
-100.001720 34.318703 -46.822411 158 125 110
-100.001720 34.318703 -46.822411 158 125 110
-99.922922 -12.359386 -42.703623 95 71 79
-100.746110 -26.500430 -40.884870 83 54 57
-99.668959 -14.813282 -42.149609 99 64 50
-99.668959 -14.813282 -42.149609 99 64 50
-96.896270 55.492649 -49.174064 149 118 103
-97.885576 51.449258 -48.245543 96 61 48
-99.458137 -11.174517 -42.074519 84 61 65
-99.275425 37.051620 -46.408623 88 59 45
-98.092964 15.595329 -44.817847 139 98 83
-95.470157 54.625741 -48.841506 137 104 95
-98.511317 42.652433 -46.840471 79 48 47
-96.621469 52.513818 -48.252267 184 141 126
-96.621469 52.513818 -48.252267 184 141 126
-98.069349 51.926131 -47.776741 181 138 117
-98.782602 31.683184 -45.645577 51 34 31
-98.782602 31.683184 -45.645577 51 34 31
-98.694709 -13.659059 -41.566843 168 133 119
-99.619761 -10.793667 -41.496950 53 36 47
-99.619761 -10.793667 -41.496950 53 36 47
-98.788598 -15.607389 -41.076869 173 129 116
-99.972215 -7.110211 -41.373402 170 133 119
-97.811154 -13.116314 -41.277856 111 78 75
-97.903863 38.326255 -45.836061 170 127 110
-97.903863 38.326255 -45.836061 170 127 110
-96.484199 24.908454 -45.000094 130 87 72
-101.444951 -12.074529 -40.200907 135 112 117
-96.014658 14.226548 -44.070429 158 119 105
-98.416057 -12.718853 -40.859932 149 124 120
-99.398664 -30.978777 -38.808995 101 73 79
-100.209501 -12.537210 -40.183681 100 76 84
-97.081891 51.181663 -46.739250 81 52 38
-97.081891 51.181663 -46.739250 81 52 38
-99.206987 -5.822086 -40.745038 67 42 38
-94.046083 -11.423858 -41.521245 100 76 84
-95.690194 26.515591 -44.444019 115 72 63
-98.533371 10.977157 -42.137927 181 136 122
-97.780719 -10.771733 -40.268463 70 53 62
-97.206321 -18.882548 -39.341313 108 69 54
-97.206321 -18.882548 -39.341313 108 69 54
-98.644307 -9.284177 -39.721650 49 28 27
-95.834151 50.673956 -45.790225 183 140 125
-99.540356 -47.447356 -35.746270 162 127 117
-97.994509 -7.780968 -39.720911 157 123 110
-97.052363 -19.401073 -38.923174 167 132 118
-97.871354 -8.850946 -39.590627 137 111 104
-98.838666 -28.565641 -37.446731 72 41 32
-96.016148 -18.195873 -39.180869 122 81 72
-95.699623 -11.797415 -39.817888 101 74 84
-96.030942 54.287399 -45.554775 50 37 61
-94.284645 23.966533 -43.247384 132 92 74
-99.662164 -47.875377 -35.060436 88 46 33
-96.419075 6.550907 -40.943319 85 56 42
-95.332399 51.991893 -45.386094 131 79 62
-95.752171 36.435749 -43.754357 183 140 119
-95.780590 34.881464 -43.517214 183 143 125
-95.618454 -15.975028 -38.907915 134 92 79
-95.618454 -15.975028 -38.907915 134 92 79
-95.231035 49.508313 -44.961184 98 47 31
-97.884992 -41.193327 -35.850924 192 146 128
-99.527374 -48.588064 -34.659570 125 94 85
-96.736911 -12.031844 -38.693351 103 76 85
-96.736911 -12.031844 -38.693351 103 76 85
-94.614580 -17.749762 -38.726693 153 121 108
-96.467617 -12.343647 -38.589889 140 113 116
-96.467617 -12.343647 -38.589889 140 113 116
-93.159238 22.536459 -42.771262 108 69 61
-97.683635 -37.790366 -35.857660 123 74 64
-77.698806 54.400695 -50.350660 143 108 98
-97.561672 -27.249386 -36.822170 190 147 130
-95.652226 -12.731599 -38.673073 116 76 64
-95.652226 -12.731599 -38.673073 116 76 64
-94.815174 -25.119763 -37.758511 124 103 111
-95.856336 -24.874886 -37.447280 101 66 70
-95.082942 -11.090099 -38.891762 140 113 117
-94.311836 48.165143 -44.472951 82 51 36
-95.794848 11.016764 -40.365630 195 152 135
-96.952048 -41.095211 -35.195476 191 145 128
-95.705500 9.250783 -40.197319 196 153 134
-95.705500 9.250783 -40.197319 196 153 134
-93.186834 24.867560 -42.386466 127 85 73
-97.679403 -47.165462 -34.162754 160 118 105
-97.679403 -47.165462 -34.162754 160 118 105
-93.920067 52.130488 -44.369286 130 71 51
-95.705059 1.097325 -39.110738 201 158 139
-93.177620 48.687092 -44.265300 81 50 35
-93.177620 48.687092 -44.265300 81 50 35
-93.867961 49.622033 -44.107324 105 50 45
-97.198442 -25.753605 -36.113912 127 104 112
-95.606628 -0.660580 -38.897318 200 157 138
-95.606628 -0.660580 -38.897318 200 157 138
-93.585554 46.409044 -43.800575 85 50 46
-93.585554 46.409044 -43.800575 85 50 46
-94.342044 -13.230445 -38.033122 181 138 123
-94.342044 -13.230445 -38.033122 181 138 123
-94.099095 -13.989555 -37.972099 119 74 63
-97.382858 -44.385644 -34.105808 116 69 48
-94.264022 -18.049728 -37.491030 193 151 132
-92.718306 25.162824 -41.906995 165 126 111
-95.692053 -6.581210 -38.016587 199 153 136
-93.572930 50.988118 -43.964916 151 116 106
-95.658687 -8.288430 -37.779135 190 145 131
-92.819396 -24.775153 -37.129289 127 104 112
-93.389001 49.813695 -43.837291 158 112 95
-93.986419 -16.356569 -37.418610 124 84 66
-93.366471 46.935443 -43.449146 149 117 104
-93.366471 46.935443 -43.449146 149 117 104
-90.453210 54.391439 -44.915718 52 34 57
-91.592804 23.803078 -41.536146 109 67 55
-90.470937 60.661105 -45.273250 153 119 106
-93.350056 38.385972 -42.260021 175 134 112
-90.420964 59.001193 -45.024186 159 124 110
-91.153482 53.184981 -44.224471 182 142 124
-92.955282 -10.789829 -37.714356 137 114 118
-95.694366 -47.142722 -33.171099 117 69 57
-93.365386 28.011357 -40.848655 172 129 114
-93.558970 -19.063088 -36.393374 171 132 117
-95.528296 -27.392151 -34.957188 206 161 140
-88.406447 -23.864468 -37.370914 123 103 108
-89.913860 58.399457 -44.537646 104 67 59
-90.525237 13.189315 -40.098804 61 42 57
-90.024069 56.763554 -44.267124 106 68 56
-92.789224 -14.540913 -36.611348 128 84 71
-87.277356 -58.274820 -34.079570 83 61 50
-92.298010 -13.019010 -36.725670 178 134 117
-91.260436 24.514750 -40.498155 157 122 112
-93.763128 11.566072 -38.458055 175 131 114
-95.225587 -44.574364 -32.738239 199 153 135
-95.225587 -44.574364 -32.738239 199 153 135
-92.668262 -13.540488 -36.385471 182 138 121
-92.668262 -13.540488 -36.385471 182 138 121
-86.282733 30.947896 -42.553824 113 96 105
-91.672817 24.126411 -40.092081 170 127 110
-91.672817 24.126411 -40.092081 170 127 110
-92.271438 -14.834737 -36.208254 163 128 118
-93.671921 -2.486696 -36.685032 180 134 116
-89.444986 -10.900905 -37.225991 100 76 84
-90.149072 31.434754 -40.813297 65 51 62
-91.906944 -15.199318 -35.876554 100 72 71
-93.330100 -9.403398 -35.841233 105 79 73
-93.330100 -9.403398 -35.841233 105 79 73
-89.046088 -10.169675 -37.070483 133 112 115
-91.693190 -14.247268 -35.786730 103 69 69
-88.475040 54.659519 -43.256932 53 37 60
-91.725019 -18.436720 -35.349518 175 139 123
-91.691557 -18.428450 -35.357517 175 139 123
-94.965091 -26.957627 -33.514005 191 147 130
-91.798487 -8.182567 -36.235815 132 103 94
-89.986673 -11.033454 -36.373430 100 72 85
-110.867420 -29.262271 -27.949375 120 102 109
-91.450718 -12.736752 -35.643345 106 74 69
-92.480519 -50.747063 -31.603402 120 75 61
-89.760116 -10.358759 -35.892600 135 112 116
-93.383983 -26.760968 -33.174723 185 139 122
-89.553085 -17.677351 -35.197383 172 137 123
-88.264123 44.739101 -41.383821 159 129 118
-104.242375 -76.032271 -24.677926 42 20 15
-90.109089 -9.709051 -35.453075 68 51 64
-91.354075 -51.100215 -31.051880 151 111 93
-88.345006 42.039094 -40.833110 170 128 115
-88.719144 -47.019770 -32.219929 77 59 66
-89.672890 12.598906 -37.524325 139 118 121
-88.097337 52.250419 -41.784424 106 63 54
-88.497558 25.403694 -39.106327 100 64 56
-92.971483 -40.666255 -31.340903 188 145 126
-92.873791 -47.400250 -30.661076 141 111 94
-88.120750 48.677827 -41.309375 109 68 59
-88.893381 35.367277 -39.732140 165 126 112
-86.970976 56.426645 -42.323834 155 122 103
-88.058797 45.085590 -40.832645 106 70 60
-87.916365 37.121775 -40.057701 172 133 119
-88.017038 13.464759 -37.676448 62 40 52
-87.876263 41.461938 -40.359169 112 72 60
-90.076640 -7.659837 -34.958440 132 115 126
-90.872005 -24.327388 -33.102769 101 70 73
-88.479510 37.841149 -39.606208 113 69 56
-89.031008 -16.072252 -34.259504 132 96 80
-88.466921 27.466780 -38.586038 103 68 58
-86.142412 55.909003 -42.013532 95 60 56
-88.612393 -10.867702 -34.741479 97 72 82
-89.363638 -13.388246 -34.182137 137 93 80
-86.582687 48.752334 -40.911752 100 65 62
-88.989046 -12.884449 -34.088486 137 94 77
-88.237384 34.256338 -38.794833 111 70 61
-86.235514 52.985085 -41.222519 150 114 98
-86.438623 55.527327 -41.348797 148 112 104
-87.755314 30.666526 -38.499767 113 71 58
-87.092939 41.560274 -39.707214 108 72 66
-89.065936 -13.370951 -33.784217 186 145 130
-88.944069 -47.355165 -30.512124 76 56 68
-103.555098 -68.941673 -23.545593 65 30 27
-86.426333 45.808741 -40.129369 156 120 104
-88.256422 -24.278539 -32.544822 123 99 109
-86.812058 25.362577 -37.714928 171 131 113
-103.870979 -68.713333 -23.000485 171 138 122
-85.829392 55.979208 -40.900761 95 64 55
-88.572231 -23.901572 -32.230049 103 68 72
-88.572231 -23.901572 -32.230049 103 68 72
-103.629604 -70.788404 -22.722071 183 144 130
-86.328974 31.397929 -38.133126 167 132 112
-85.961810 48.747458 -39.912719 100 64 56
-88.034371 -24.694272 -32.076210 74 50 58
-85.940781 53.065921 -40.108460 155 121 105
-175.683895 38.974079 -8.943015 107 72 59
-84.516922 27.749752 -37.988132 100 67 58
-86.049798 41.619619 -38.770920 105 69 63
-85.046211 26.524341 -37.628299 105 65 60
-86.261192 45.906640 -39.023012 157 124 105
-86.053517 31.886885 -37.657446 117 77 65
-102.855924 -69.715347 -22.139162 104 60 43
-85.799316 34.400169 -37.830323 104 69 56
-86.326757 38.655084 -38.006443 162 128 112
-101.936498 -72.875472 -21.951121 128 96 83
-85.916272 24.747569 -36.702460 106 67 53
-84.336749 49.497745 -39.275354 163 127 109
-84.338954 26.631309 -36.895806 105 68 60
-85.327974 38.167480 -37.669343 105 69 61
-175.100794 51.139928 -8.655661 97 61 55
-101.947680 -70.477410 -21.305674 175 133 114
-101.947680 -70.477410 -21.305674 175 133 114
-101.857045 -72.690418 -21.053046 134 95 80
-83.354536 56.298963 -39.260024 97 62 58
-85.495356 -48.211076 -28.252119 152 116 98
-84.966305 19.084064 -34.968489 94 62 51
-83.091536 61.466292 -39.503497 146 114 103
-82.889166 56.982545 -39.096540 156 120 102
-83.068123 45.549978 -37.786156 103 65 60
-99.432078 -72.393753 -20.459372 118 86 75
-53.597322 66.391570 -49.563020 123 99 87
-82.542601 58.620635 -38.780409 101 65 55
-82.628825 42.597727 -37.133962 165 127 109
-82.971421 31.683307 -35.941881 175 132 117
-83.673921 19.897098 -34.324020 110 109 111
-82.652333 50.276054 -37.545615 109 68 59
-83.357480 25.234854 -34.727174 117 72 58
-82.691529 52.783523 -37.672693 96 62 56
-83.671466 20.284011 -34.051079 127 127 127
-83.253255 20.317338 -34.155089 127 127 127
-82.311776 57.073007 -38.039166 157 123 107
-82.876554 45.627738 -36.645573 102 66 60
-82.529810 18.049281 -33.814043 143 112 103
-83.032849 19.569278 -33.750957 122 124 125
-83.032849 19.569278 -33.750957 122 124 125
-86.354247 26.679765 -33.284479 114 74 69
-82.571927 38.401633 -35.694319 105 68 60
-82.810715 20.032489 -33.752269 85 79 84
-82.486323 42.640575 -36.027676 163 128 114
-84.517518 -42.662718 -26.790756 102 68 55
-82.754412 28.199938 -34.429544 98 66 60
-82.489672 18.503029 -33.558959 124 122 122
-82.642439 28.217540 -34.458166 98 66 60
-82.642439 28.217540 -34.458166 98 66 60
-82.642439 28.217540 -34.458166 98 66 60
-82.547095 31.170645 -34.721118 107 71 61
-83.021715 21.209480 -33.539075 165 127 115
-97.895625 -72.163977 -19.109148 106 79 69
-80.524638 49.305273 -37.090856 101 66 62
-82.798663 20.113988 -33.123022 134 130 135
-82.374945 19.146605 -33.142275 41 38 54
-84.424809 -46.142586 -25.824946 70 67 76
-82.136610 20.675127 -33.109969 95 87 98
-82.159606 17.360841 -32.687086 98 63 60
-82.159606 17.360841 -32.687086 98 63 60
-83.188501 -42.447164 -26.358360 73 63 69
-81.903067 45.858092 -35.613328 103 66 58
-81.978777 18.328382 -32.753474 137 129 130
-82.263640 19.489073 -32.506269 113 112 122
-82.009044 19.507037 -32.570988 113 112 122
-79.897693 57.230795 -36.884230 158 125 105
-79.036513 56.631467 -36.866707 97 64 61
-80.366364 45.950552 -35.146624 105 69 59
-82.374552 -46.861490 -24.983293 157 118 104
-79.201642 49.495289 -35.768634 103 66 62
-79.474464 42.314181 -34.759539 106 68 63
-79.322353 53.737039 -35.938448 148 114 98
-79.368272 56.249327 -36.118811 155 122 106
-82.231155 18.896425 -31.328529 65 71 84
-79.629317 54.620508 -35.793453 154 121 106
-79.253212 46.612804 -35.021812 163 126 106
-79.575148 49.081347 -35.091680 153 118 108
-79.801157 35.163601 -33.564872 105 70 67
-79.368034 39.398699 -33.969837 161 125 107
-82.290176 -48.527213 -23.838681 149 115 99
-79.265562 56.793085 -35.556811 98 62 56
-82.060686 -48.457774 -23.903817 149 115 99
-81.605783 -51.045742 -23.797351 128 96 85
-80.430368 46.094751 -34.013003 103 67 59
-79.418543 32.186874 -32.872599 168 131 111
-79.606131 34.769072 -33.033496 161 130 115
-82.259277 -40.177914 -24.498612 62 55 68
-79.391912 49.587471 -34.555227 98 62 54
-80.791333 28.418151 -31.893855 98 65 56
-82.138506 -39.620205 -24.495310 102 98 110
-81.516925 -48.999878 -23.662251 95 58 50
-81.524053 -47.138896 -23.756701 110 69 54
-81.241670 -41.412260 -24.422246 53 46 61
-81.241670 -41.412260 -24.422246 53 46 61
-79.069701 31.626615 -32.606715 109 73 67
-79.069701 31.626615 -32.606715 109 73 67
-80.562761 13.735745 -30.061716 117 85 72
-80.752197 -42.427673 -24.202710 64 60 72
-79.212084 32.636832 -32.355028 115 76 62
-77.501467 57.413287 -35.429114 160 124 106
-79.592565 35.184292 -32.401878 107 71 63
-79.749659 39.441264 -32.678431 161 128 112
-72.721747 19.219162 -33.106154 127 126 128
-80.977467 -42.025908 -23.868281 107 106 115
-80.872753 -48.881253 -23.000556 150 112 100
-81.729189 -47.314730 -22.657520 156 119 105
-71.081689 19.889035 -33.258647 67 70 84
-77.804962 57.013408 -34.450418 99 61 56
-68.556765 62.979514 -38.363379 110 98 120
-68.556765 62.979514 -38.363379 110 98 120
-77.153841 49.821667 -33.690900 97 61 55
-77.796844 38.996857 -32.274014 102 70 64
-140.871349 -96.807220 4.651099 152 112 107
-76.108482 62.700657 -34.937221 86 61 59
-76.301411 57.571090 -34.263271 153 120 101
-77.412561 35.974012 -31.596690 162 128 112
-79.314783 -45.685979 -22.473711 66 67 77
-76.006368 53.433538 -33.649725 95 63 57
-76.319543 39.653950 -32.010895 163 127 111
-77.062753 35.485477 -31.191367 102 70 64
-76.150635 62.219069 -34.253436 151 116 106
-76.023129 57.751457 -33.807284 155 116 101
-76.051036 46.373452 -32.600683 105 67 67
-76.306883 18.962258 -29.611021 138 129 126
-76.398316 39.151660 -31.474549 103 66 62
-78.319767 -39.316180 -22.559112 72 67 82
-78.319767 -39.316180 -22.559112 72 67 82
-78.456083 -41.807666 -22.225791 119 124 127
-75.545850 28.883559 -30.488390 95 64 55
-75.959018 43.378537 -31.817621 163 124 109
-75.866893 61.424191 -33.698732 101 66 53
-76.057735 45.969976 -31.996399 160 126 113
-76.473585 31.933847 -30.361098 105 67 62
-74.154165 28.507971 -30.813187 121 90 75
-75.729933 58.232597 -33.292454 99 64 50
-75.867429 36.229704 -30.829865 165 129 111
-76.400319 19.497717 -28.884000 72 75 89
-76.400319 19.497717 -28.884000 72 75 89
-76.106074 38.707113 -30.972451 154 119 106
-75.835255 51.037557 -32.296234 105 65 53
-75.944319 53.523705 -32.396394 98 65 56
-76.034346 29.686244 -29.739767 162 128 112
-76.034346 29.686244 -29.739767 162 128 112
-75.777367 43.914092 -31.257361 111 72 58
-76.236346 57.834242 -32.522482 150 119 98
-76.033214 46.434199 -31.371301 101 67 61
-76.503697 11.798579 -27.418703 166 130 120
-75.882784 47.052708 -31.204587 158 126 103
-74.847665 -58.623733 -20.539445 114 85 71
-74.847665 -58.623733 -20.539445 114 85 71
-75.919095 30.626599 -29.370886 116 77 62
-75.843242 21.428786 -28.421038 98 88 100
-75.733879 31.965011 -29.437071 106 71 61
-75.613180 57.326106 -32.066470 90 60 55
-75.816789 36.263292 -29.686254 162 127 113
-76.866308 -42.844512 -20.751470 61 62 72
-73.983899 19.973776 -28.271443 68 71 85
-73.211363 57.848433 -32.206208 152 120 101
-76.155999 -41.082104 -20.555776 69 68 78
-76.104143 -39.027556 -20.775932 68 61 76
-76.011303 -42.049237 -20.163101 73 75 85
-75.935915 -50.112482 -19.199556 143 104 96
-43.003896 65.572066 -43.825263 22 17 14
-73.463205 57.956249 -31.440753 150 116 100
-75.817707 -38.483926 -20.303220 124 120 126
-72.846666 50.262205 -30.552298 100 63 59
-74.925557 -13.764604 -22.972399 122 86 80
-73.429468 20.045624 -26.907688 72 70 89
-73.410133 28.004226 -27.618593 108 68 63
-72.514024 54.505078 -30.738145 147 113 97
-72.628155 55.265582 -30.624968 152 117 103
-73.570767 35.930932 -28.216201 108 71 67
-72.623792 48.883054 -29.795927 161 127 111
-73.345211 21.975698 -26.553613 102 81 89
-72.623470 40.233029 -28.712207 159 123 105
-72.661105 42.655801 -28.893322 152 117 104
-72.465101 55.016396 -30.172533 102 65 51
-71.802393 46.840199 -29.502589 95 61 55
-71.802393 46.840199 -29.502589 95 61 55
-72.865191 32.971432 -27.568728 158 122 106
-72.599104 57.517947 -30.234617 90 55 51
-72.351351 48.042505 -29.250175 104 66 54
-72.359148 47.469280 -28.690797 155 120 106
-72.464135 34.170640 -27.220565 110 71 62
-72.394601 33.415168 -27.132410 112 75 61
-73.420599 -38.300278 -18.981081 75 62 76
-72.517279 36.004183 -27.262241 102 69 60
-73.564711 -41.430654 -18.486100 85 79 84
-73.848465 -49.720975 -17.337555 147 110 96
-70.183936 57.656179 -29.692405 94 61 58
-70.508125 54.095034 -29.061586 95 61 55
-41.792145 64.534257 -41.249245 23 18 17
-70.634344 36.213596 -26.836246 104 66 61
-70.668188 47.034469 -27.967566 99 64 61
-70.668188 47.034469 -27.967566 99 64 61
-70.850089 32.546604 -26.299220 106 69 65
-70.777372 43.369972 -27.432340 99 65 59
-70.700970 39.782327 -27.025634 100 63 59
-70.700970 39.782327 -27.025634 100 63 59
-70.323101 57.413412 -28.826290 147 112 99
-31.583598 65.984602 -44.884914 70 58 54
-69.383839 29.018528 -25.732285 123 89 76
-70.243660 43.354566 -26.904052 159 127 114
-70.243660 43.354566 -26.904052 159 127 114
-70.674792 30.595484 -25.237840 170 132 114
-70.376077 30.624878 -25.325650 170 132 114
-70.292202 56.873072 -28.110725 58 42 60
-70.690945 27.889382 -24.772400 105 72 57
-30.751756 66.738418 -44.236153 25 17 17
-69.062939 58.975843 -27.972776 97 60 52
-70.527425 15.512119 -22.492129 77 52 62
-70.296195 -39.887252 -16.185421 135 94 79
-69.103029 27.745377 -23.795885 97 61 55
-69.294754 55.566437 -26.658183 79 60 75
-74.752751 -52.001163 -12.242216 52 39 47
-41.463009 63.590238 -38.232392 21 16 13
-69.100466 -8.491149 -19.091004 104 81 85
-68.370631 30.743441 -23.690933 168 125 108
-69.065180 -8.487829 -19.101912 104 81 85
-68.931261 -10.990804 -18.696874 103 68 54
-69.229940 34.150904 -23.482317 46 34 46
-69.229940 34.150904 -23.482317 46 34 46
-68.644884 -9.581064 -18.695575 177 136 121
-69.393340 39.636803 -23.662525 158 123 110
-68.223277 -9.157845 -18.315226 109 78 79
-68.003085 -11.783140 -17.773134 180 136 119
-69.247833 37.369850 -22.667426 84 51 32
-68.677273 54.450104 -24.778122 43 29 17
-68.609586 50.970615 -24.348754 43 30 22
-69.493559 -5.473357 -17.632943 135 106 101
-69.604304 -6.354370 -16.938633 32 15 12
-65.025309 -56.983366 -13.152725 111 83 72
-69.691756 -3.273126 -17.071861 162 128 112
-69.691756 -3.273126 -17.071861 162 128 112
-69.898596 -0.645208 -17.185014 110 67 50
-69.898596 -0.645208 -17.185014 110 67 50
-67.005017 -10.386588 -17.226583 126 90 84
-67.005017 -10.386588 -17.226583 126 90 84
-67.849997 55.326036 -24.111265 171 130 108
-68.921474 -32.167193 -13.901597 188 149 140
-66.886082 -11.257445 -17.022878 112 79 76
-66.277531 29.416445 -21.784967 170 133 119
-65.576962 -49.348923 -13.151020 49 34 42
-66.779688 -15.271809 -16.415542 162 125 105
-66.077533 28.499779 -21.471900 110 68 55
-66.077533 28.499779 -21.471900 110 68 55
-70.124653 -3.309204 -16.179281 158 122 106
-67.616537 38.175606 -21.780163 153 120 101
-65.906098 26.221577 -21.153921 108 68 56
-65.906098 26.221577 -21.153921 108 68 56
-65.593520 16.108097 -20.012909 64 46 63
-67.520967 -22.280251 -14.745349 71 54 65
-65.750781 28.217607 -21.107703 164 129 115
-66.109744 -15.004682 -16.049987 112 70 58
-65.848759 -11.938422 -16.299731 114 80 74
-67.613664 14.115276 -18.476647 182 137 123
-65.795234 -15.466582 -15.894288 164 129 116
-67.250350 14.718826 -18.604070 184 140 123
-67.922392 -2.605652 -16.267592 135 87 75
-68.147126 -37.313440 -12.226754 192 146 129
-65.604690 27.835830 -20.593196 119 75 62
-66.353491 57.483999 -23.559254 56 43 69
-71.039811 -8.431440 -14.173323 130 112 119
-65.501335 -49.494459 -11.785096 50 33 42
-64.980391 -14.236473 -15.885729 119 79 67
-65.388539 -11.905434 -15.964907 171 136 123
-64.938107 30.127863 -20.874220 107 68 59
-64.925328 -12.275451 -15.724796 143 97 86
-64.925328 -12.275451 -15.724796 143 97 86
-65.169635 -13.688763 -15.348667 77 53 65
-65.169635 -13.688763 -15.348667 77 53 65
-63.883594 -14.885458 -15.681499 119 78 69
-65.143946 -14.229625 -15.179616 158 125 110
-64.421251 28.204785 -20.160943 160 124 108
-65.693036 13.557100 -17.877907 99 68 53
-66.247895 5.978299 -16.684943 99 65 52
-64.660636 -10.427281 -15.430707 132 90 77
-64.660636 -10.427281 -15.430707 132 90 77
-65.896097 2.371996 -16.309339 95 65 54
-143.063918 -108.424499 29.069096 110 69 66
-64.400020 -8.803719 -15.599209 114 77 63
-64.345446 -14.988678 -14.745015 117 77 65
-65.385082 47.795833 -21.417242 177 138 124
-63.897219 27.616028 -19.748837 113 68 57
-64.261523 -48.845198 -10.774153 126 97 90
-24.424723 66.593472 -40.833443 75 59 52
-24.424723 66.593472 -40.833443 75 59 52
-64.115921 -49.386265 -10.218388 47 30 41
-62.873653 -8.415350 -15.376467 111 74 66
22.290608 54.855595 -59.041089 157 125 112
-63.757792 -14.303111 -14.257926 201 158 143
-64.860156 48.926946 -20.919353 110 58 42
-63.506702 -10.180860 -14.700752 117 72 59
-65.034536 8.050076 -15.976876 201 155 137
-65.056542 6.442059 -15.762514 203 157 139
-65.056542 6.442059 -15.762514 203 157 139
-65.351751 -32.500287 -11.185223 131 82 68
-63.026324 30.511742 -19.366878 106 63 54
-64.362100 46.488402 -20.599014 99 54 41
-64.585152 47.917313 -20.662671 86 37 23
-45.193377 24.256859 -26.237136 104 71 56
-64.945677 -5.325156 -14.290148 175 142 127
-64.945677 -5.325156 -14.290148 175 142 127
-26.734033 65.543569 -38.651711 67 53 47
-40.403393 61.690263 -32.213491 23 19 18
-9.377214 66.882093 -46.202415 178 154 142
-45.091847 24.121540 -25.835174 128 97 82
-63.335171 -43.851056 -10.129040 70 50 62
-61.956373 -7.820248 -14.851910 134 113 115
-62.819317 -8.540671 -14.375716 113 76 68
-62.819317 -8.540671 -14.375716 113 76 68
-62.689677 -15.290847 -13.570219 179 140 126
-64.908364 -5.097508 -13.748091 84 48 38
-62.588790 32.084192 -18.910033 126 84 72
-44.561866 23.423188 -25.722247 44 28 21
-62.638047 -13.344394 -13.660365 91 62 65
-65.077034 -5.891343 -13.456172 50 28 22
-44.945255 24.448460 -25.595528 99 60 51
-62.383595 -12.571489 -13.733345 171 134 120
-62.223378 -48.729595 -9.629041 120 91 86
-62.721184 -13.862392 -13.367707 165 132 117
-64.734212 -15.738430 -12.264508 177 141 125
-63.452402 2.741524 -14.420027 90 56 43
-62.233725 -49.161979 -8.838660 48 31 40
-62.429360 -46.061661 -9.093064 108 71 57
-64.057985 -7.331028 -12.777287 132 112 117
-60.695854 -43.158116 -9.970278 73 54 63
-61.682776 -12.510931 -13.023084 103 75 81
-61.723211 -11.217081 -13.094503 167 133 120
-61.723211 -11.217081 -13.094503 167 133 120
-42.109683 24.430765 -25.756854 140 112 101
-62.741914 -43.798032 -8.589083 79 55 63
-62.032071 -46.454056 -8.455461 119 79 61
-61.041144 -10.552415 -12.761277 107 73 73
-20.589510 67.403782 -39.423317 22 14 14
-60.842124 -9.313100 -12.710088 115 77 72
-60.842124 -9.313100 -12.710088 115 77 72
-63.100889 -2.361601 -12.408704 180 138 119
-60.820904 -8.794775 -12.489027 110 75 71
-60.820904 -8.794775 -12.489027 110 75 71
-62.569407 -27.096000 -9.439665 177 134 117
-62.569407 -27.096000 -9.439665 177 134 117
-59.844318 -13.767945 -12.138098 117 78 64
-60.916820 -49.015572 -7.466656 48 31 40
-40.110126 56.820694 -28.928763 54 41 63
-62.501696 -42.375853 -7.354599 173 130 115
-83.324376 74.010227 -11.605138 74 60 54
-83.324376 74.010227 -11.605138 74 60 54
-61.220196 10.157780 -13.902086 67 38 33
-58.326390 -6.320792 -13.247770 134 115 118
-36.706582 21.502084 -25.987750 151 109 96
-60.025588 12.327387 -14.284450 93 58 55
-60.913065 -4.590612 -11.807889 37 22 20
-61.275199 -35.051497 -7.756335 138 88 68
-60.494402 -36.138251 -7.884616 187 144 125
-39.455691 24.804529 -24.333972 94 84 107
-41.391268 25.439685 -23.522466 38 31 44
-39.020768 24.837198 -24.476677 94 84 107
-59.684017 -43.433347 -7.022125 70 45 59
-60.215285 -43.619915 -6.762058 67 41 57
-59.098712 -9.252106 -11.278063 192 148 131
-58.517626 -48.452862 -6.873339 46 30 37
-41.006806 57.868595 -27.208883 73 70 86
-41.006806 57.868595 -27.208883 73 70 86
-59.795848 -17.342898 -9.849542 144 99 86
-27.533761 63.588057 -33.850437 68 55 47
-59.375587 -4.934817 -11.424273 138 118 123
-37.748399 58.048383 -28.536230 116 117 115
-37.748399 58.048383 -28.536230 116 117 115
-17.871907 67.526273 -38.452214 24 17 14
-58.205095 -7.007309 -11.386555 107 82 92
-58.598784 -9.207457 -10.899991 134 90 73
-40.018943 58.246303 -27.168685 112 114 114
-58.099297 -10.930573 -10.367733 136 97 83
-36.892071 23.865446 -23.951143 46 43 59
-34.934750 58.001754 -28.779930 112 114 114
-57.677427 -20.708957 -8.952147 74 45 54
-57.677427 -20.708957 -8.952147 74 45 54
-57.844391 -18.703254 -8.862406 144 100 87
-34.189883 62.241108 -28.981000 20 17 13
-37.932006 58.306555 -26.728612 102 107 106
-38.186029 26.706163 -22.484511 73 82 91
-36.923817 27.900075 -22.914213 60 68 75
-36.923817 27.900075 -22.914213 60 68 75
-55.461302 -44.426777 -5.473679 154 117 103
-36.882022 21.679893 -21.496290 154 125 116
-36.855426 18.600632 -20.948499 152 125 111
-36.609545 17.016364 -20.849365 122 97 87
-36.674789 19.920877 -21.122807 140 113 99
-35.069528 25.367187 -21.935409 89 81 104
-35.665658 69.603837 -27.000445 74 60 54
-35.665658 69.603837 -27.000445 74 60 54
-36.408034 20.732282 -20.711035 83 61 56
-35.882345 16.678333 -20.423537 51 38 46
-55.774453 -48.342308 -3.213984 44 30 36
-51.653722 16.511928 -12.961787 69 49 61
-52.103510 15.956248 -12.157458 138 118 117
-50.683728 16.606113 -12.819356 65 46 63
-55.102554 -47.133585 -2.748972 135 101 88
-35.197487 21.836155 -20.281643 162 127 114
-54.896119 -41.540649 -3.186923 110 74 64
-54.245749 8.249118 -9.506804 111 73 61
-54.201296 1.390996 -8.570713 94 58 50
-52.043739 -55.291464 -2.520686 133 97 81
-52.043739 -55.291464 -2.520686 133 97 81
-54.382053 -38.892057 -3.259689 98 66 60
-53.637150 -0.348914 -8.250099 128 123 124
-53.408065 -7.035147 -7.517487 86 59 55
-54.404166 0.645696 -7.965308 72 54 55
-53.831866 -4.061832 -7.458311 63 43 42
-54.163149 -5.047151 -7.138950 96 101 100
-54.163149 -5.047151 -7.138950 96 101 100
-53.828838 -43.766507 -2.531654 120 81 67
-53.828838 -43.766507 -2.531654 120 81 67
-53.770414 -45.651671 -2.281028 96 61 48
-26.596752 66.017676 -28.774780 69 56 48
-53.280476 -2.540307 -7.655126 113 121 128
