ply
            format ascii 1.0
            element vertex 20410
            property float x
            property float y
            property float z
            property uchar blue
            property uchar green
            property uchar red
            end_header
-519.226187 92.039893 508.299524 70 48 66
-519.236272 235.665212 492.526895 61 30 27
-517.355078 269.457255 489.981824 45 35 47
-519.282787 251.110599 490.583593 34 22 20
-517.702907 137.753633 502.059060 74 50 62
-519.483274 -48.676910 520.898420 65 52 66
-519.633597 60.242582 509.131795 129 102 122
-515.657418 175.729720 498.775369 116 101 115
-515.657418 175.729720 498.775369 116 101 115
-519.857042 21.681825 512.494832 52 36 47
-519.621699 54.130014 509.145910 128 102 120
-516.737335 108.069275 504.316980 63 47 65
-515.570086 137.696782 501.563531 66 41 55
-515.434068 207.663820 494.116289 112 95 106
-517.502134 237.027106 489.557439 78 40 38
-516.804998 253.490040 488.172799 122 98 110
-516.687482 139.159451 500.220758 138 119 134
-515.624636 212.557039 492.569047 114 97 108
-515.932625 135.012845 500.388509 122 104 117
-515.826982 91.673327 504.898721 71 52 67
-517.611139 -8.238145 514.289171 133 109 127
-516.295999 21.022002 510.637647 53 37 48
-512.786263 175.455878 495.301420 122 105 119
-516.642302 -33.922663 515.162355 82 59 73
-515.781825 -11.722120 512.948209 48 38 44
-515.523236 24.518953 509.073907 132 102 121
-510.059898 266.032217 486.205751 43 31 29
-510.059898 266.032217 486.205751 43 31 29
-515.622895 18.834177 509.259206 124 104 123
-513.696163 54.773655 506.366044 54 44 57
-511.061066 244.892738 486.819250 42 34 41
-514.568704 -16.522285 512.618810 127 97 108
-511.485642 136.562238 497.794515 63 46 57
-512.590545 261.671457 483.510000 50 39 55
-513.958757 75.932409 501.996881 80 59 81
-513.958757 75.932409 501.996881 80 59 81
-513.291066 -14.004596 510.771829 106 85 93
-511.802214 -10.124918 510.715658 129 103 121
-509.186881 262.460730 482.958299 59 47 67
-509.675878 264.304958 482.243043 118 99 108
-509.614771 247.509406 483.899290 122 102 115
-513.605850 -40.754320 512.161714 79 54 64
-510.777658 -8.083602 509.802419 136 108 127
-510.616916 -12.598225 510.302144 57 35 40
-510.968011 79.104405 500.008470 130 110 123
-507.628649 176.098434 491.549760 60 42 55
-507.691830 229.564438 485.766012 124 102 107
-510.481876 83.362989 499.216062 128 104 114
-507.773560 228.126834 485.039598 55 41 53
-511.099332 -14.313062 508.771879 116 92 102
-507.953876 291.415630 477.500516 59 43 50
-509.350269 200.810943 486.110002 50 40 52
-509.412473 69.397515 499.923307 70 50 63
-509.234374 76.668179 498.566228 59 40 49
-507.236951 88.569991 498.192674 33 23 29
-505.072110 355.701385 470.994932 48 42 53
-509.908074 19.840512 503.732664 56 42 48
-509.908074 19.840512 503.732664 56 42 48
-510.226076 -50.013127 510.216600 67 56 72
-504.833978 359.521303 469.748098 108 92 110
-506.984847 290.185652 475.724107 107 91 102
-506.984847 290.185652 475.724107 107 91 102
-508.487623 60.428397 499.108297 126 100 123
-506.970113 -12.289288 505.132657 55 41 52
-506.884711 19.156513 501.843530 58 44 55
-506.884711 19.156513 501.843530 58 44 55
-508.056753 -52.932920 508.585340 124 105 120
-506.198114 54.111432 497.423917 44 33 43
-506.598824 -55.377927 507.807237 62 49 63
-505.015891 -50.055041 507.534391 80 59 74
-502.862542 179.706559 484.093934 63 55 78
-502.330058 378.441486 463.293535 44 36 29
-503.962510 53.554936 496.031076 47 35 47
-503.311961 141.920058 486.104375 75 61 73
-501.585596 314.439759 468.720228 109 96 120
-501.252502 293.998156 470.756036 122 101 110
-500.290769 291.145549 470.975572 56 43 51
-501.368349 146.819816 485.359174 129 103 116
-501.510876 87.706705 490.813333 41 33 40
-501.510876 87.706705 490.813333 41 33 40
-501.618713 200.706694 478.730947 46 38 49
-500.354784 177.502052 481.573755 126 107 124
-497.705095 266.612063 473.157007 50 38 50
-500.490730 107.979999 488.149530 138 112 126
-501.793306 55.110560 493.018514 136 113 128
-498.656862 175.004105 481.976777 91 65 78
-498.656862 175.004105 481.976777 91 65 78
-500.050181 131.902639 485.263711 49 39 51
-500.050181 131.902639 485.263711 49 39 51
-500.673717 209.906838 476.688272 133 117 134
-500.052255 142.208419 483.805448 114 94 106
-500.059264 289.080844 468.288118 110 91 110
-501.830524 -53.607705 503.086740 69 59 82
-499.508851 162.621198 481.154806 72 58 69
-501.666587 -59.245565 503.046018 124 104 123
-498.487323 155.987380 482.041532 73 53 58
-498.095339 291.175256 467.994768 66 49 58
-500.831073 50.362337 491.832143 134 106 125
-502.251714 20.513389 494.051248 124 103 128
-500.689762 -9.129056 497.765428 132 108 120
-500.839060 -14.063426 498.146325 51 43 50
-497.838657 166.601155 480.400640 50 43 50
-496.131247 230.675445 474.479944 128 108 113
-498.058003 149.309985 481.435281 38 32 43
-498.414176 132.625160 482.821256 120 98 117
-498.207133 52.382977 491.182691 63 44 61
-498.207133 52.382977 491.182691 63 44 61
-497.408980 200.424264 476.014406 42 34 44
-499.258082 85.196994 487.044794 114 96 119
-495.637553 290.597639 465.924722 51 37 41
-498.497813 -54.820301 500.121099 109 94 121
-497.591966 -50.468495 499.820119 70 54 71
-497.090834 -10.655578 495.828706 50 34 41
-497.950953 12.587944 492.887956 66 43 48
-498.267692 -12.921824 494.661600 115 89 105
-497.776621 54.691421 487.563116 141 117 135
-493.205517 226.504884 471.316320 111 94 105
-493.486493 228.711913 470.831758 63 45 62
-494.611257 290.032087 463.777620 47 35 41
-494.583409 202.272878 472.595960 116 94 99
-493.788260 174.472425 475.935632 50 42 52
-496.710365 20.205799 490.492898 131 108 130
-496.473139 10.548232 491.040212 132 108 126
-494.726198 199.687443 472.028047 49 39 52
-494.678920 206.633625 471.322328 76 60 61
-494.678920 206.633625 471.322328 76 60 61
-495.589417 -10.208955 493.356019 130 105 125
-494.967383 -12.428661 493.712789 85 56 71
-492.197078 264.920077 465.077669 51 34 47
-492.197078 264.920077 465.077669 51 34 47
-491.642445 202.390049 471.082670 117 91 104
-494.102471 86.692969 481.843835 109 97 119
-494.574206 16.764168 488.580686 51 38 46
-494.574206 16.764168 488.580686 51 38 46
-494.274443 -10.872402 491.341001 132 106 120
-492.611020 208.143947 468.842489 114 99 103
-490.702050 225.001142 467.648965 52 40 52
-493.950027 18.985680 487.158948 129 103 121
-490.775912 223.290692 467.411977 104 84 96
-491.969603 147.896556 474.578363 112 92 105
-490.584677 228.578291 466.792947 53 40 56
-490.584677 228.578291 466.792947 53 40 56
-491.062110 174.076239 471.899110 49 42 57
-491.062110 174.076239 471.899110 49 42 57
-493.458503 14.130364 487.083513 130 105 119
-490.306872 131.223283 476.376516 57 42 56
-492.322248 88.369708 479.568464 50 42 53
-489.630955 199.466047 468.955499 48 38 51
-488.181871 289.339743 459.491617 46 37 47
-488.263481 224.382053 465.946561 49 35 46
-489.507812 91.613693 478.261739 126 100 114
-490.649288 -16.915085 488.512117 61 44 53
-488.910764 172.700051 469.236928 113 106 119
-488.781231 149.573002 471.588785 45 33 51
-488.358110 198.735867 466.582471 51 39 51
-487.692826 130.965999 474.001676 59 44 58
-488.992565 86.431956 477.958280 97 91 110
-488.795369 160.245237 469.923669 64 45 62
-490.137094 -50.497141 489.981920 77 53 63
-490.047186 29.987166 481.538183 81 60 82
-486.575025 214.950130 463.407213 26 22 28
-486.575025 214.950130 463.407213 26 22 28
-485.674065 174.097041 467.693788 51 44 51
-485.525983 130.896757 471.839219 61 48 62
-487.073010 106.262109 473.331243 136 118 135
-484.691661 226.252947 461.813814 46 36 49
-487.082785 -15.594056 485.819322 58 30 49
-487.082785 -15.594056 485.819322 58 30 49
-484.857958 102.260714 474.623376 58 51 56
-486.876958 -16.537323 485.342199 118 99 116
-483.637255 224.622831 461.818296 107 89 102
-488.805335 -34.614267 485.985643 118 97 122
-484.387701 228.660438 460.126192 129 106 111
-483.530682 198.126922 462.904149 51 38 54
-482.227629 318.845616 450.888521 114 94 106
-483.576553 267.305610 455.545598 49 36 44
-484.727138 49.852500 477.566320 59 45 57
-484.343713 49.773113 477.673704 59 45 57
-484.116428 352.825508 445.712644 53 45 55
-483.567398 265.645561 455.048162 94 76 89
-482.949656 226.335976 459.300691 58 45 59
-483.225196 130.810294 469.000989 64 49 63
-484.734552 154.675833 465.603048 81 61 80
-487.237566 -36.025622 484.139902 85 64 89
-487.237566 -36.025622 484.139902 85 64 89
-487.783378 -44.104888 484.222299 66 54 76
-482.863420 199.347851 461.334115 120 98 110
-484.354776 47.449920 475.944024 129 103 121
-482.730620 201.382194 460.481817 77 56 71
-482.415121 198.704765 460.801774 115 99 106
-482.663148 14.307830 479.201108 38 34 53
-481.260293 276.496349 452.464181 109 96 104
-484.470051 -15.618857 481.007177 126 104 128
-483.817094 8.546547 478.088170 128 106 125
-480.614226 226.401434 456.812745 59 43 60
-484.451383 -26.781382 481.090051 79 60 85
-482.402986 18.086229 477.012617 131 107 125
-481.870549 151.397822 463.166887 123 98 112
-481.297749 125.846655 465.430623 133 116 130
-479.199737 228.407071 455.709630 129 104 114
-481.041806 49.330199 473.050195 61 43 56
-481.041806 49.330199 473.050195 61 43 56
-482.116073 -14.227780 479.030591 83 53 66
-482.116073 -14.227780 479.030591 83 53 66
-480.175107 246.673939 452.739126 116 97 116
-482.013863 46.800301 472.327691 124 108 131
-477.710360 101.510223 468.077070 66 56 72
-477.710360 101.510223 468.077070 66 56 72
-480.089586 158.543608 460.729200 65 56 77
-479.711454 14.215384 475.432474 44 35 48
-479.132646 16.316674 474.466878 128 107 122
-478.991049 83.505374 467.490274 103 90 106
-480.295437 -14.211389 476.748258 101 67 78
-480.295437 -14.211389 476.748258 101 67 78
-480.367272 11.623202 473.900110 118 95 117
-476.928371 282.609472 447.120839 104 79 93
-477.601617 187.282596 456.173116 109 90 105
-477.078074 48.706935 470.441038 81 60 75
-477.697414 13.953231 473.531419 47 37 54
-476.144379 242.074785 450.483018 43 36 49
-475.178640 186.798248 455.031186 53 31 43
-474.765914 101.588920 463.864309 64 53 69
-474.765914 101.588920 463.864309 64 53 69
-475.490230 262.426326 446.290952 46 35 45
-475.794619 -16.113963 474.870187 55 39 56
-475.588387 -13.757917 474.710637 144 118 132
-474.382966 281.881271 444.682866 42 25 34
-474.819582 48.705370 467.692548 55 44 54
-475.898665 14.002386 470.382387 58 49 70
-472.272747 286.095152 443.783647 46 36 48
-476.630610 91.159024 461.684019 79 60 79
-476.630610 91.159024 461.684019 79 60 79
-474.347179 144.278751 457.211477 70 52 69
-473.853725 85.160918 463.399679 55 42 56
-475.537437 15.952305 469.469911 134 114 133
-472.168391 241.796110 446.610528 40 30 42
-470.780104 130.202625 458.599359 61 40 62
-476.556438 158.223299 452.862913 107 90 111
-476.556438 158.223299 452.862913 107 90 111
-474.275368 14.981494 467.977506 76 54 83
-470.022338 84.895515 462.174302 62 49 65
-472.332686 8.095101 468.267614 124 108 132
-472.201865 87.991767 459.354288 126 105 127
-470.663517 48.407317 463.047296 42 35 50
-471.200030 166.447011 450.557405 118 100 117
-471.868079 26.767848 463.618070 83 66 93
-471.868079 26.767848 463.618070 83 66 93
-470.053309 6.911305 466.349679 55 42 56
-470.053309 6.911305 466.349679 55 42 56
-469.868153 171.461771 449.345857 114 99 113
-468.613594 101.185163 457.095605 60 48 68
-469.502824 168.960545 449.236089 52 43 56
-469.332259 295.493279 436.265642 50 34 51
-471.029347 -33.653619 468.528634 85 67 96
-468.419045 11.394576 464.935190 46 36 49
-468.419045 11.394576 464.935190 46 36 49
-467.280214 147.574029 451.424772 122 98 108
-468.190687 11.261276 465.000516 46 36 49
-468.190687 11.261276 465.000516 46 36 49
-468.657749 48.060674 460.389787 46 36 52
-470.390933 -35.670163 468.053991 142 123 140
-466.681283 261.771534 439.001638 50 37 45
-466.681283 261.771534 439.001638 50 37 45
-467.630237 6.088714 463.618165 124 104 127
-466.337293 223.159001 441.660959 30 25 34
-465.242475 183.822189 444.777566 47 36 52
-462.300413 286.070118 435.226613 33 29 34
-465.262693 261.051474 436.130887 52 37 51
-464.909046 -17.080744 464.814168 35 24 34
-465.380090 81.641743 454.429704 114 97 106
-464.359372 106.028710 452.093297 117 100 109
-465.471047 86.565538 453.244096 120 101 122
-466.506832 377.957401 422.700769 107 92 106
-466.506832 377.957401 422.700769 107 92 106
-464.846962 129.000465 449.024660 102 80 98
-465.091484 105.044431 451.175100 73 51 69
-464.925426 8.821235 460.325033 112 96 119
-461.541956 83.057947 454.248029 39 33 38
-464.016455 147.668860 446.362859 113 93 106
-463.556450 105.333937 450.693590 68 50 63
-463.329046 105.319882 450.745660 68 50 63
-460.370915 144.097868 448.100549 24 21 30
-462.389105 13.874332 460.511762 128 103 117
-464.178413 333.475957 426.782686 39 39 53
-464.178413 333.475957 426.782686 39 39 53
-464.312523 103.964020 449.782354 115 95 108
-464.312523 103.964020 449.782354 115 95 108
-461.787646 224.075339 438.566953 44 34 50
-463.190787 375.857220 422.147733 50 39 41
-464.278811 172.343735 442.354471 76 60 77
-464.193957 -14.842030 461.109811 129 107 125
-461.705583 307.477031 429.119474 101 81 86
-463.201230 78.299520 451.697904 85 66 83
-462.521523 175.803868 441.892320 118 99 120
-463.590615 -17.466369 461.149770 52 38 50
-461.729425 260.681663 433.058816 62 44 61
-462.688082 51.938234 453.982335 130 104 122
-461.959379 79.740660 451.017743 107 89 102
-461.959379 79.740660 451.017743 107 89 102
-460.598009 125.847966 446.130258 50 36 54
-462.639850 128.214417 444.918996 128 100 113
-461.923211 70.501000 451.129037 134 115 134
-463.279622 -56.841161 463.463575 65 47 70
-461.093562 11.992351 457.388574 102 89 103
-461.423748 118.427647 446.159250 118 92 108
-461.475604 76.587491 450.145990 122 104 117
-472.256845 386.507783 412.804681 105 94 110
-462.380975 -83.628275 465.017778 50 46 71
-460.017555 115.472988 444.686681 64 49 70
-460.199373 12.901554 454.973203 73 56 83
-459.693306 94.781832 446.217615 62 51 71
-458.539885 241.581342 431.706983 36 28 38
-459.853452 70.716019 448.526555 64 44 56
-458.229654 48.076139 451.223070 85 77 88
-460.009401 106.956352 444.371683 103 85 114
-459.693354 -18.646982 456.552774 77 55 79
-458.586495 104.790331 444.146806 129 112 133
-468.185990 384.939227 411.073476 62 47 51
-458.314818 13.387076 453.565198 88 66 94
-458.334749 11.999617 453.280622 128 115 137
-458.192175 -59.335949 460.484964 61 58 80
-458.192175 -59.335949 460.484964 61 58 80
-457.790654 217.011235 431.939107 40 33 38
-457.790654 217.011235 431.939107 40 33 38
-457.279938 -17.941197 455.905801 141 120 129
-454.652589 259.346328 428.332883 30 24 29
-454.570048 286.868248 425.276834 87 73 77
-454.183310 226.895950 430.982572 33 27 32
-458.779376 -79.411259 459.720403 135 109 127
-457.593506 -58.809235 458.009988 64 53 79
-458.031242 76.849486 443.893129 120 99 124
-455.891960 10.643033 450.902158 51 40 60
-455.891960 10.643033 450.902158 51 40 60
-451.764577 262.307749 427.012140 106 84 89
-455.928963 48.285720 446.801168 116 97 118
-454.573005 208.793614 430.052453 55 39 50
-454.943007 123.140533 437.250406 69 58 74
-454.871553 -20.186212 451.884252 69 53 76
-452.362078 255.560157 424.795896 91 82 102
-454.747718 104.075593 438.943082 129 107 126
-451.855653 230.259464 426.955205 108 89 108
-454.505842 -83.809104 457.428056 55 48 61
-453.245180 9.971753 448.135072 55 42 64
-450.362032 257.978556 423.215753 27 23 28
-449.991243 103.539390 438.520891 126 109 130
-452.408188 80.857404 439.694005 99 88 104
-452.556413 -59.177949 453.717977 74 55 80
-452.419084 45.618436 442.887765 53 41 61
-450.846165 141.945664 433.557779 38 33 48
-450.341242 254.951391 421.357519 89 82 103
-450.455278 -84.130027 453.832609 62 48 72
-450.791376 63.031071 438.364393 74 62 90
-448.963898 10.320196 444.476015 39 27 39
-450.428813 -59.588864 450.893480 73 63 93
-450.428813 -59.588864 450.893480 73 63 93
-449.250191 235.340867 421.404344 57 50 53
-449.862784 163.389406 428.120119 99 90 123
-447.023075 211.674020 424.416906 30 24 29
-446.566647 287.073240 416.022664 96 72 82
-449.956863 -68.290176 450.486261 86 63 91
-449.956863 -68.290176 450.486261 86 63 91
-449.423664 100.207760 433.089429 79 63 86
-449.423664 100.207760 433.089429 79 63 86
-447.738522 -62.503292 449.495870 130 109 131
-447.738522 -62.503292 449.495870 130 109 131
-446.989387 -84.138682 451.715166 53 34 43
-450.921076 375.625119 403.353864 52 37 45
-446.352499 123.980302 430.722124 51 41 57
-446.372932 167.016331 425.826246 58 51 66
-446.612113 47.290257 437.774831 132 111 133
-446.213859 -23.020973 444.284421 68 56 76
-446.084111 10.365752 440.672380 59 46 60
-445.343702 -60.410311 447.333890 58 45 53
-446.350020 82.036451 432.344133 44 37 52
-442.970794 258.958969 415.555173 33 29 35
-442.437332 259.003530 415.652162 33 29 35
-442.144483 359.217749 405.619890 23 18 20
-445.231526 -64.933636 447.214300 74 57 70
-445.458167 78.411388 430.991155 128 114 132
-444.080346 163.823841 422.179395 123 101 125
-443.623775 -59.726527 444.196111 63 47 70
-444.145196 -81.632843 445.892698 126 101 127
-441.706889 -22.796001 440.140802 55 42 58
-440.210980 104.246417 427.321893 55 35 48
-442.827170 -59.309223 441.380769 67 51 75
-440.277975 44.122989 431.112462 58 48 71
-440.933221 10.322133 434.231645 66 48 71
-438.362377 140.240989 421.994001 38 33 48
-436.802786 261.875782 408.621007 114 91 95
-436.887568 103.480069 423.428708 66 50 68
-436.887568 103.480069 423.428708 66 50 68
-437.480085 165.734831 416.654378 44 34 47
-437.910574 -37.497058 436.810953 123 104 125
-437.040752 101.288704 422.971803 114 94 106
-437.040752 101.288704 422.971803 114 94 106
-438.540667 43.801001 427.980977 75 66 87
-436.292928 -54.849400 438.386613 143 121 133
-437.872236 -85.816398 440.332204 56 50 67
-437.113660 -25.726094 434.372026 62 51 61
-435.925191 79.394558 423.939973 134 121 137
-435.925191 79.394558 423.939973 134 121 137
-436.774176 -29.449668 434.473115 61 47 58
-435.881775 10.368738 430.745870 106 94 116
-435.394376 109.077588 420.721322 42 27 35
-436.140102 -57.710507 437.004930 36 29 32
-435.935848 43.975634 426.347906 84 63 88
-436.128681 -53.191116 435.830385 75 55 68
-435.017984 100.008351 420.808584 45 38 53
-435.641878 78.062236 422.610647 64 51 77
-435.896009 -23.453512 432.299215 60 43 56
-436.170166 -24.849274 430.873376 120 103 117
-434.046786 105.167324 417.943365 135 116 135
-432.513350 -101.098635 438.701230 43 39 45
-434.370177 -55.317643 433.302766 135 116 131
-434.405988 -88.546517 436.321718 125 113 131
-434.405988 -88.546517 436.321718 125 113 131
-432.346528 38.335360 424.418813 67 53 71
-434.794825 -57.269015 432.662660 56 37 52
-432.619494 27.250914 424.426061 69 51 68
-432.619494 27.250914 424.426061 69 51 68
-433.494919 -23.662259 429.060060 48 35 49
-432.404631 -89.741232 435.338861 68 51 62
-431.446522 96.358571 416.820032 118 102 126
-432.235306 13.111762 424.610597 132 112 131
-430.780929 79.074563 418.480474 56 47 74
-432.768672 -21.687671 427.366620 132 106 120
-430.557530 10.030458 424.421483 59 50 77
-429.931777 76.052214 416.479188 128 110 141
-428.811496 87.199770 415.772325 129 107 131
-428.894895 -100.773277 434.227640 54 38 56
-426.423495 190.717409 405.098039 36 28 38
-428.129404 9.564630 421.938878 70 56 84
-428.137582 -24.277463 423.860055 56 40 51
-426.303046 80.304786 414.108354 51 45 64
-427.322047 -60.125437 427.663499 121 108 130
-428.471606 -50.280490 425.738126 60 44 67
-428.471606 -50.280490 425.738126 60 44 67
-427.327722 -57.951417 426.438218 46 27 42
-424.277800 -101.949849 432.022554 61 42 63
-426.816552 -82.065823 428.682023 142 116 134
-426.034539 -86.995377 429.244977 50 37 51
-425.461429 87.648381 411.074430 36 28 35
-425.322884 43.380836 415.308362 64 50 68
-425.270837 -25.916555 421.694738 113 96 110
-425.101441 46.357629 413.586313 149 121 134
-424.282353 77.962744 409.986192 86 65 90
-423.730391 81.879075 409.788114 136 117 126
-423.247593 -24.975803 420.357782 56 39 48
-423.149102 73.755484 409.934503 89 71 102
-423.149102 73.755484 409.934503 89 71 102
-422.662180 -36.153962 420.207769 48 38 51
-422.307675 -42.696943 420.931798 64 49 63
-420.952361 -87.863901 425.440294 57 44 60
-421.769064 -49.042609 420.948774 67 53 71
-422.147768 78.260372 407.973367 84 64 83
-421.157449 -26.979353 418.719942 120 103 116
-421.317785 42.723761 411.349088 76 64 82
-422.221368 8.577207 414.247114 69 56 82
-421.578997 -52.708795 420.546228 67 49 66
-421.578997 -52.708795 420.546228 67 49 66
-421.578997 -52.708795 420.546228 67 49 66
-420.751684 -55.511334 418.929082 119 100 127
-420.460122 46.527962 407.928640 144 119 129
-417.852371 7.907627 411.071664 76 61 88
-418.338030 -100.144412 421.377260 131 109 127
-419.149440 27.027724 408.188230 91 70 95
-416.864722 64.315290 404.749853 79 53 69
-416.183107 -87.293424 419.581872 54 43 63
-415.871327 -87.389650 419.636613 54 43 63
-415.946501 -82.948460 418.933946 139 111 131
-415.360706 -23.471048 411.873418 71 49 67
-413.201564 44.136728 405.761701 62 46 63
-413.201564 44.136728 405.761701 62 46 63
-414.112728 -71.146514 415.583688 69 47 71
-414.385694 53.696626 403.058797 84 67 81
-414.385694 53.696626 403.058797 84 67 81
-412.038749 -73.291018 414.764196 119 103 121
-411.694139 -60.691287 412.929326 128 107 115
-412.001842 -64.118829 412.950117 51 34 43
-412.712806 43.624831 401.576120 65 48 62
-410.712164 6.894497 405.519277 53 38 52
-410.963266 -73.210838 412.870103 60 43 56
-411.848419 -87.274279 413.650304 52 42 55
-410.139959 46.893088 399.577123 72 54 71
-410.675257 41.546638 399.855977 123 103 122
-412.402313 64.160081 396.796686 126 109 136
-412.402313 64.160081 396.796686 126 109 136
-411.701935 -45.876040 407.909185 74 56 87
-410.166948 -23.576667 405.966264 60 43 57
-410.166948 -23.576667 405.966264 60 43 57
-409.359973 44.908185 399.367124 137 107 118
-409.359973 44.908185 399.367124 137 107 118
-407.793873 42.969192 400.123960 68 42 58
-407.793873 42.969192 400.123960 68 42 58
-409.418862 -20.906373 405.507261 69 46 60
-409.610050 -61.191513 408.797532 129 110 129
-407.003229 -5.748560 402.112371 75 52 67
-407.972639 -84.102132 409.123975 129 110 129
-405.803626 -17.026552 401.724607 118 99 116
-404.640358 -99.366178 406.710416 136 115 137
-404.788893 -90.727379 405.234891 117 98 123
-406.534522 8.479450 394.094163 78 63 90
-402.168983 -91.010775 403.957635 67 49 66
-402.168983 -91.010775 403.957635 67 49 66
-401.318114 -103.214350 405.453569 43 35 52
-399.912828 -100.609901 403.055650 130 108 132
-399.362033 -59.076431 397.763807 67 54 80
-399.963563 -104.951455 401.621992 122 108 136
-468.389671 216.081510 345.733529 54 46 93
-396.191042 -87.752881 398.610956 75 60 87
-464.511507 210.478578 345.828134 36 35 75
-396.555751 42.509387 384.942800 74 53 68
-497.006052 365.446935 318.986684 39 34 66
-491.411036 273.053870 329.613382 38 36 72
-488.458627 229.702351 334.823877 118 106 136
-465.260404 212.661026 343.513757 116 100 153
-394.607609 -24.913730 390.719968 61 45 62
-394.850844 32.626972 384.886724 135 117 140
-469.842260 218.954680 340.329248 126 108 161
-492.283266 229.473541 331.181032 131 113 144
-492.283266 229.473541 331.181032 131 113 144
-393.721455 -58.691897 392.383844 52 39 61
-393.721455 -58.691897 392.383844 52 39 61
-392.189043 31.430603 382.618028 88 65 87
-392.202657 33.768342 382.112962 78 57 79
-494.026464 362.496815 315.837938 117 97 139
-392.193931 37.127981 381.223279 71 56 70
-390.204232 -105.557361 395.771676 95 72 100
-498.665565 274.850521 321.809751 103 90 134
-391.134995 9.939293 383.257944 118 101 115
-391.528981 -122.742452 395.312768 144 125 142
-391.251200 -114.427938 394.486410 134 110 134
-461.435025 212.007008 339.010507 123 106 157
-390.170329 -106.971230 393.661100 135 114 129
-389.368265 -26.566388 386.010629 58 48 61
-388.629907 39.445422 379.415685 70 52 69
-394.972246 40.649182 377.195054 69 56 72
-388.719528 7.384453 382.436448 61 45 68
-496.779864 365.434442 311.178666 104 87 108
-389.459937 -122.436514 393.903238 72 46 59
-388.623970 39.503453 377.963907 69 56 72
-486.238974 239.150689 325.784665 40 30 47
-486.238974 239.150689 325.784665 40 30 47
-388.408821 -22.641685 382.765085 133 107 121
-458.340877 209.394584 336.901838 64 54 100
-388.858908 -102.466919 389.981061 141 119 143
-384.145468 -26.405921 382.021982 49 32 46
-447.038668 195.892844 339.841253 118 99 142
-483.531635 228.892193 324.317533 128 112 143
-483.523815 251.158295 321.280843 83 79 115
-489.311617 364.507446 308.114129 58 51 64
-483.476322 235.548124 322.307283 30 29 33
-466.008633 224.498556 328.384763 55 59 78
-442.587512 181.952176 339.049703 82 64 95
-481.861537 233.134947 321.059972 91 82 122
-383.065479 -91.139688 384.075433 68 54 78
-423.553842 156.486819 345.940381 51 37 78
-443.362063 190.042088 336.339170 98 83 115
-443.362063 190.042088 336.339170 98 83 115
-479.952329 242.915533 319.294626 110 94 101
-479.952329 242.915533 319.294626 110 94 101
-382.488340 -105.807736 383.766729 84 59 87
-382.488340 -105.807736 383.766729 84 59 87
-492.696040 373.637066 302.103883 88 77 103
-439.107197 189.773021 336.872274 106 88 119
-479.248326 257.787321 317.541009 27 25 37
-439.384740 187.715790 336.760980 33 27 52
-440.947669 195.386908 335.415822 120 100 145
-380.390804 -111.675086 383.533555 75 54 86
-380.390804 -111.675086 383.533555 75 54 86
-379.764383 -108.068385 383.075220 131 113 136
-481.952351 341.650973 306.566125 46 44 56
-487.307923 367.503533 301.285345 115 95 138
-439.016002 184.145782 333.835107 108 88 133
-439.757126 195.114467 331.552869 120 103 146
-481.708496 364.153896 302.082712 46 43 45
-476.723235 258.744822 313.723165 87 77 124
-373.938459 -27.416923 373.186571 55 36 53
-437.429088 187.327609 332.564336 44 34 64
-477.457803 343.290029 304.914647 29 24 39
-376.720684 38.796464 365.489561 139 112 122
-475.397842 234.593640 315.931493 37 30 43
-376.665776 -90.479901 377.915174 72 56 74
-446.506398 208.354924 326.324445 61 52 95
-446.506398 208.354924 326.324445 61 52 95
-475.995343 237.626360 314.154512 88 74 116
-476.003259 248.357759 312.816411 94 78 126
-459.897941 94.981197 332.061464 102 86 139
-433.330577 181.368182 330.602437 79 60 93
-432.096499 191.941438 329.522973 41 37 79
-372.990554 -107.875635 374.986726 67 55 73
-372.692865 -90.504899 373.098260 70 59 79
-373.530357 -124.254932 375.745756 85 60 88
-479.364961 272.445855 304.105646 113 96 130
-371.675866 -104.565468 372.718221 137 115 133
-371.763723 -95.192864 371.236497 135 113 137
-370.998209 -112.650730 372.181779 88 65 97
-481.907266 365.798054 292.799550 104 89 127
-474.683040 363.268123 294.883520 48 45 47
-366.603773 -109.558775 370.781213 62 53 80
-366.603773 -109.558775 370.781213 62 53 80
-467.208427 227.183423 308.564454 129 108 133
-440.355247 210.046432 317.944604 127 108 157
-435.599511 207.561848 318.202669 63 57 106
-364.770263 -28.981008 360.715658 48 39 52
-365.624850 -93.331029 364.428884 141 122 137
-365.624850 -93.331029 364.428884 141 122 137
-468.306487 360.207448 291.060525 96 81 119
-468.306487 360.207448 291.060525 96 81 119
-464.938372 233.729646 303.821069 100 88 124
-363.652509 -91.939976 364.012700 86 60 78
-363.652509 -91.939976 364.012700 86 60 78
-363.095134 -89.659753 362.232191 140 116 126
-432.489102 206.256697 313.702947 60 51 107
-462.564271 236.856339 301.866514 26 23 39
-461.819189 258.534382 299.807435 43 37 56
-466.815823 362.333784 285.430700 52 43 56
-358.291047 -108.297398 360.162717 60 41 62
-438.382071 222.365592 305.564481 63 56 77
-459.817284 348.560557 286.889726 23 22 24
-459.817284 348.560557 286.889726 23 22 24
-398.475664 128.315327 324.104387 28 25 64
-358.215683 -142.179503 361.057741 85 61 93
-390.444534 187.975416 319.126874 36 26 62
-456.143206 268.573961 292.658883 68 63 84
-390.280026 181.206558 317.438775 70 65 120
-468.310564 363.604531 278.563386 103 84 123
-388.550180 183.700833 316.801816 21 16 43
-454.410499 238.952110 292.567617 45 34 54
-454.410499 238.952110 292.567617 45 34 54
-389.100330 142.571834 319.243699 40 31 57
-459.063309 361.829171 278.802568 48 40 57
-468.631380 273.886035 284.148294 58 51 72
-350.523275 -100.344887 350.175077 45 29 47
-452.232998 235.427199 290.139944 47 34 58
-451.613896 235.474846 290.147382 47 34 58
-462.064832 363.973270 274.375135 99 77 119
-452.976673 320.993624 280.517751 27 24 50
-456.768053 361.197863 275.045854 46 41 56
-457.327335 270.184372 281.680566 116 96 141
-385.316747 155.473004 308.860284 41 33 80
-342.926114 -150.535049 346.898061 129 106 134
-462.663096 390.945683 264.322263 135 106 97
-445.655554 231.795845 283.322889 112 93 136
-340.355008 -116.831055 342.762453 57 43 55
-376.475709 141.431496 309.088498 30 23 44
-376.475709 141.431496 309.088498 30 23 44
-341.185515 -140.961327 344.116670 70 47 62
-341.404360 -143.734732 344.147855 85 59 83
-340.564602 -148.618593 344.204599 74 46 59
-441.672724 240.918491 280.412465 52 40 70
-375.090783 142.309210 305.776674 76 69 120
-375.090783 142.309210 305.776674 76 69 120
-448.543804 360.156212 266.702253 39 35 46
-448.543804 360.156212 266.702253 39 35 46
-336.512774 -135.246506 340.931970 51 32 47
-385.626214 204.904494 296.276647 64 54 107
-385.626214 204.904494 296.276647 64 54 107
-337.501877 -151.777878 341.901189 128 102 115
-438.712233 234.291742 278.546125 109 89 134
-436.502092 230.939469 276.467782 45 39 58
-382.915204 204.411254 291.727811 63 50 104
-435.147327 252.503452 271.554262 47 38 64
-368.819182 95.741027 301.850110 38 30 53
-380.285686 204.027937 288.689214 68 54 108
-372.577756 31.295011 304.960424 71 61 104
-372.011178 29.177953 304.145891 27 19 50
-364.905184 125.974894 295.430070 25 20 35
-366.563600 130.965803 294.051725 64 58 111
-364.457434 60.443167 300.458318 69 60 110
-364.457434 60.443167 300.458318 69 60 110
-381.811803 203.266940 282.830125 62 56 111
-366.089004 124.320940 293.043119 76 67 118
-361.705106 71.239644 298.886472 29 21 51
-427.644699 249.252877 265.748960 34 26 49
-361.174958 118.486840 292.073137 30 25 54
-358.676284 101.776182 293.907625 43 34 67
-358.161514 184.079824 286.287958 36 26 68
-360.087722 72.936978 295.130807 69 63 110
-360.087722 72.936978 295.130807 69 63 110
-357.435458 95.084880 293.090707 33 24 50
-372.658437 202.864919 279.598123 67 55 115
-426.449960 249.198184 263.049108 96 86 133
-426.449960 249.198184 263.049108 96 86 133
-355.627745 167.392967 285.962373 26 21 48
-355.627745 167.392967 285.962373 26 21 48
-355.627745 167.392967 285.962373 26 21 48
-356.558078 80.187586 293.485910 33 26 59
-356.020969 178.776238 284.343320 38 29 69
-384.594672 0.437341 294.250661 46 42 84
-384.594672 0.437341 294.250661 46 42 84
-423.746055 251.890586 261.779386 34 32 52
-356.562918 39.970661 295.757848 38 29 72
-368.186205 130.827079 282.934743 37 27 73
-423.241847 242.796168 259.840375 106 90 138
-423.241847 242.796168 259.840375 106 90 138
-356.635016 113.269717 286.388284 62 52 98
-366.477459 202.551220 275.870210 62 54 107
-355.205577 89.456014 288.603860 36 33 78
-420.949929 257.079909 257.728177 34 28 59
-420.949929 257.079909 257.728177 34 28 59
-420.021289 228.589699 260.369188 43 34 61
-439.265984 270.528255 252.254278 25 25 39
-552.352136 388.024435 216.087991 103 89 77
-552.352136 388.024435 216.087991 103 89 77
-366.997283 137.102238 278.969270 78 74 123
-420.441692 231.692991 258.476716 110 92 139
-420.441692 231.692991 258.476716 110 92 139
-364.612310 139.234809 278.823167 22 18 53
-350.208395 202.655635 275.794011 62 54 107
-418.549126 250.631557 255.877572 75 56 99
-363.604873 138.857637 276.278764 77 70 113
-351.362508 113.149218 279.379064 41 34 79
-359.739917 202.010129 269.065935 58 49 105
-364.340704 131.950823 274.575883 40 34 75
-352.869480 25.075064 286.770612 34 25 58
-352.869480 25.075064 286.770612 34 25 58
-362.175553 134.038208 274.386960 101 87 135
-362.175553 134.038208 274.386960 101 87 135
-362.703889 129.353014 274.291307 82 72 119
-362.703889 129.353014 274.291307 82 72 119
-362.130755 126.920126 274.350625 37 30 73
-445.336335 270.135245 243.488580 30 30 60
-361.140316 129.158244 272.262460 46 34 86
-342.398422 78.676448 278.340799 47 34 66
-339.122861 176.427314 267.590791 32 25 52
-406.868189 231.509993 244.257718 100 86 134
-406.868189 231.509993 244.257718 100 86 134
-343.263333 -37.522473 280.858785 30 23 56
-343.263333 -37.522473 280.858785 30 23 56
-404.761332 234.060261 243.819219 38 33 64
-464.057916 267.484973 226.928598 37 33 68
-403.151196 234.270070 240.417844 115 95 142
-334.780424 9.790812 272.574216 36 34 64
-329.522913 136.373053 258.590871 24 18 49
-328.454512 170.883361 255.476362 31 24 51
-328.387218 26.092831 267.489988 22 18 43
-328.387218 26.092831 267.489988 22 18 43
-364.508074 -104.177871 272.731763 91 70 115
-364.508074 -104.177871 272.731763 91 70 115
-361.746352 -97.385588 272.495061 102 78 113
-360.017794 -91.519763 271.670133 95 73 115
-360.017794 -91.519763 271.670133 95 73 115
-325.523131 112.235112 258.765108 33 27 50
-325.523131 112.235112 258.765108 33 27 50
-397.435825 229.313574 234.502393 53 39 75
-359.878796 -101.179292 269.507772 41 30 63
-359.878796 -101.179292 269.507772 41 30 63
-352.350371 -88.065579 266.083127 24 18 37
-388.958591 229.314468 226.428205 51 39 75
-342.515939 215.043721 235.406572 31 26 41
-386.875790 245.536313 223.842317 58 47 87
-329.206937 199.595759 237.323076 27 25 55
-386.466067 234.585903 224.564535 64 47 90
-381.687635 224.482987 220.239335 61 45 76
-379.479974 245.956836 215.731508 70 53 97
-348.867219 204.264317 223.996145 54 45 101
-344.052547 198.158369 224.155313 29 26 76
-356.702488 209.976969 220.520765 128 109 158
-347.080534 200.798032 221.247465 124 105 156
-332.017391 179.037259 224.192506 101 88 140
-331.998699 158.985541 225.919420 89 79 132
-333.391803 123.666845 228.857881 93 80 132
-332.246249 82.850127 231.817991 93 76 119
-331.222432 144.729397 225.929815 92 76 123
-331.195658 65.404491 232.420617 32 21 54
-329.586809 182.739852 221.328908 48 32 86
-344.536965 197.501383 217.692548 69 57 115
-344.536965 197.501383 217.692548 69 57 115
-330.449050 67.820662 231.399137 24 19 48
-330.209582 128.718314 225.738698 27 18 45
-369.754332 245.554743 205.995733 46 32 73
-351.606768 27.923039 226.851159 98 79 112
-346.073835 -43.343093 233.829576 78 67 107
-322.981053 122.702483 221.442872 95 77 130
-324.076777 136.337046 218.802244 104 89 140
-366.523951 250.937281 202.101594 53 39 81
-366.523951 250.937281 202.101594 53 39 81
-353.318136 -85.068252 234.181577 67 59 106
-323.324590 95.088833 221.770841 31 19 55
-321.375709 103.775308 220.981199 48 34 70
-363.457578 222.466383 204.488832 58 40 79
-321.749621 88.011146 222.191125 46 32 74
-321.749621 88.011146 222.191125 46 32 74
-320.125895 166.871992 214.895898 51 36 80
-320.125895 166.871992 214.895898 51 36 80
-347.443050 22.951869 223.850900 45 38 71
-347.443050 22.951869 223.850900 45 38 71
-321.148532 82.961982 221.918470 33 24 57
-353.668540 -88.510468 232.343274 30 24 49
-344.619244 -126.040211 234.789640 96 77 120
-350.985735 -108.397999 232.122976 99 78 123
-342.841070 26.804338 220.633012 104 83 115
-318.928569 155.418394 211.712057 44 38 91
-344.774812 -62.166347 226.648027 105 84 129
-322.287052 57.873078 218.498117 113 87 110
-319.829076 169.154308 208.580667 96 83 135
-340.278142 18.756203 219.211561 101 84 127
-346.364611 -105.258634 228.982622 47 32 64
-341.259997 -125.609078 230.842000 55 37 74
-314.208012 127.470282 210.185319 29 24 53
-314.208012 127.470282 210.185319 29 24 53
-313.434356 66.176648 215.465146 31 23 46
-313.434356 66.176648 215.465146 31 23 46
-313.246172 157.276980 206.656152 27 18 58
-313.601153 121.449000 209.767515 97 85 135
-340.976256 -71.280827 222.489816 112 93 132
-310.326129 158.119432 203.387433 90 81 132
-310.239261 128.819523 205.608064 98 83 134
-352.679604 224.982796 191.095716 49 35 69
-352.679604 224.982796 191.095716 49 35 69
-352.252882 246.227155 188.263589 72 52 99
-306.933444 86.386900 206.878454 45 32 70
-339.798229 -85.474815 215.933973 46 32 68
-533.337586 261.357532 163.148576 36 34 64
-340.131777 -89.436796 215.810663 114 94 141
-340.131777 -89.436796 215.810663 114 94 141
-303.016179 120.085303 200.063497 96 80 133
-308.249503 11.612365 208.227807 100 83 134
-310.616630 191.004036 190.602952 114 97 148
-333.127111 -72.019281 211.322385 115 97 134
-534.252637 260.071335 159.471303 56 40 87
-328.019863 214.558444 185.436517 130 112 149
-330.433052 -100.441935 213.207990 51 35 76
-330.433052 -100.441935 213.207990 51 35 76
-304.072624 185.062406 189.520818 38 33 78
-304.072624 185.062406 189.520818 38 33 78
-301.754361 158.128688 191.108972 29 29 43
-323.585194 -126.980653 213.528329 56 39 72
-328.978735 -88.682189 209.285432 38 27 47
-310.839515 162.380192 187.968332 109 96 142
-343.408173 223.273418 178.528100 62 42 77
-534.292739 260.006318 155.732042 48 39 82
-314.048355 190.749154 183.572179 121 105 153
-296.043711 1.320712 200.561315 90 79 117
-319.561916 -129.260173 208.379251 48 31 74
-294.348496 -13.452073 199.850446 37 22 54
-531.519645 351.379953 143.346387 96 79 122
-293.178123 72.582945 189.909345 38 50 84
-292.236178 -14.887764 197.498781 89 79 115
-323.381668 -116.675188 202.586156 46 34 70
-292.967480 73.909008 188.303453 118 141 157
-334.084504 237.046204 169.746763 49 37 73
-299.548226 155.369673 179.560930 93 117 135
-283.687525 29.289211 191.758043 84 91 110
-296.351688 158.507917 178.458673 24 24 36
-296.351688 158.507917 178.458673 24 24 36
-331.977575 228.661595 168.755037 71 53 94
-287.729698 51.194913 188.324148 142 157 166
-289.098757 -16.394492 194.037992 22 20 50
-316.785567 -105.252137 199.250680 103 81 129
-331.120627 221.340261 167.267496 115 94 139
-303.625315 192.164133 171.821958 68 58 111
-299.482875 146.390984 176.146585 159 169 176
-286.159831 -24.383988 192.323572 44 28 59
-286.757665 70.352462 182.873517 103 120 139
-327.757865 218.271122 165.771943 64 47 81
-299.548953 155.832586 173.298150 81 101 119
-332.064050 -155.413952 198.012620 28 25 51
-285.861986 71.887276 181.411344 120 146 162
-284.381919 66.065806 181.167299 144 173 182
-299.631219 153.594587 170.681936 32 34 52
-277.728813 27.361021 181.885511 85 108 124
-291.406386 138.262693 170.304948 138 159 167
-525.118702 347.757874 132.662374 52 45 72
-525.118702 347.757874 132.662374 52 45 72
-292.315393 135.112879 168.983823 58 63 88
-277.071839 -42.030444 184.877473 58 38 80
-296.060114 144.564787 167.009145 37 36 56
-269.032662 113.737810 170.978528 111 135 153
-320.293050 217.382655 157.410985 61 44 71
-275.274914 -25.184252 181.566221 92 81 121
-275.274914 -25.184252 181.566221 92 81 121
-277.331751 23.310903 176.932317 131 147 160
-269.116431 111.621318 169.574815 58 74 103
-279.592579 178.018472 162.717897 33 25 56
-279.592579 178.018472 162.717897 33 25 56
-319.574588 236.791513 154.513532 63 47 78
-298.414689 142.786721 164.243871 112 123 131
-302.516049 -103.798714 185.448724 56 37 76
-302.516049 -103.798714 185.448724 56 37 76
-301.635557 145.652012 163.389665 47 47 61
-529.872029 350.513063 128.868753 103 84 123
-289.517420 64.078628 171.279317 172 194 205
-275.939208 24.581072 174.768812 52 69 90
-287.971740 61.503343 170.050794 183 202 210
-287.971740 61.503343 170.050794 183 202 210
-289.228230 63.227572 169.602567 137 153 166
-297.782391 -101.525559 183.128816 106 86 129
-275.450509 23.284391 173.435956 122 136 148
-292.085462 70.903218 167.876035 166 188 199
-291.177695 69.194175 168.020612 116 130 148
-291.177695 69.194175 168.020612 116 130 148
-273.542302 -77.012219 181.883317 49 38 71
-525.509184 347.189222 127.126295 51 39 61
-264.518278 111.874977 165.336591 155 180 190
-271.358567 -27.188768 176.901895 30 25 56
-271.358567 -27.188768 176.901895 30 25 56
-271.358567 -27.188768 176.901895 30 25 56
-269.606560 25.760839 172.364217 73 94 116
-295.199292 128.807900 161.337644 129 145 157
-297.022443 -104.757109 181.430894 54 37 80
-301.438289 140.757237 158.823759 60 61 71
-296.147972 149.994747 157.967645 20 19 29
-268.367439 25.844363 168.879968 123 140 153
-314.596992 216.210363 148.819333 68 50 87
-293.018716 121.405563 158.372766 168 179 187
-288.215690 85.698803 161.732847 78 93 119
-288.215690 85.698803 161.732847 78 93 119
-287.575763 154.466281 154.975301 67 81 99
-287.575763 154.466281 154.975301 67 81 99
-299.012893 129.922257 156.396085 66 68 76
-301.483481 145.496920 154.865915 47 59 83
-291.823953 150.385777 154.904348 47 59 69
-325.734227 254.837570 143.329984 134 115 148
-266.182368 -27.220251 171.554071 86 74 116
-293.049985 -111.761763 175.742513 51 37 73
-267.647749 29.700378 164.869577 24 22 51
-301.785546 144.011531 152.460748 125 148 156
-301.785546 144.011531 152.460748 125 148 156
-289.590901 149.857811 151.989633 18 21 35
-289.590901 149.857811 151.989633 18 21 35
-287.157612 152.588413 150.661165 58 73 82
-294.751745 123.410157 151.446229 70 72 90
-299.936109 132.084850 150.354749 147 159 165
-282.761424 111.563916 152.355939 153 158 167
-287.216430 -102.522852 170.028764 105 85 128
-295.722132 126.654936 149.347860 65 67 77
-273.397487 159.720991 147.616178 32 32 68
-273.397487 159.720991 147.616178 32 32 68
-300.042599 132.565943 147.885972 83 82 92
-300.042599 132.565943 147.885972 83 82 92
-297.170752 142.458180 146.603757 97 119 131
-300.382906 134.250811 147.054559 128 140 146
-299.803775 130.275933 146.405965 146 152 157
-257.471400 -23.278406 161.962491 92 76 123
-300.392740 140.281389 145.398313 96 102 113
-303.732365 134.203575 145.375902 119 135 141
-295.071500 124.307737 145.426542 97 98 108
-256.856793 -27.467980 160.051423 45 31 65
-254.163294 -48.543694 160.804445 48 35 67
-298.227494 219.044910 135.273534 63 44 69
-263.682037 82.508873 148.422605 129 123 128
-293.074852 126.067261 143.214780 170 179 182
-254.765099 -73.140814 162.007505 44 31 69
-254.765099 -73.140814 162.007505 44 31 69
-253.810697 -61.200251 160.658151 42 31 64
-297.578340 240.370045 132.005865 76 53 97
-479.009026 259.143136 121.841222 152 126 162
-292.851322 127.143700 140.913183 135 131 137
-292.851322 127.143700 140.913183 135 131 137
-297.272938 219.158981 132.035715 109 94 138
-291.200023 125.408871 140.140039 193 197 198
-296.606343 142.931924 138.054449 59 75 91
-249.788492 -15.389999 153.676778 83 71 113
-296.023803 210.752545 131.650144 122 68 67
-305.872732 -160.863366 163.430292 35 28 49
-466.954368 260.214899 119.165403 152 126 162
-296.243387 136.044065 136.855775 17 18 32
-293.040233 130.240933 136.451608 201 196 198
-276.821797 -113.297953 158.140546 50 35 73
-248.300212 -49.048140 153.377324 103 82 115
-523.055952 305.375514 111.465055 32 25 58
-244.944745 -4.971495 147.698480 88 73 111
-244.944745 -4.971495 147.698480 88 73 111
-245.260685 -57.059302 151.311380 48 33 60
-289.495140 212.261055 125.928575 204 153 137
-260.722082 187.433121 128.485757 72 59 111
-260.722082 187.433121 128.485757 72 59 111
-267.062729 -132.861843 154.043752 58 37 76
-242.414563 -5.487760 143.869382 37 29 60
-243.540388 168.555687 126.363927 33 25 55
-239.677613 -29.225757 143.548471 46 33 59
-239.677613 -29.225757 143.548471 46 33 59
-255.125874 17.617438 136.872846 88 72 103
-234.591704 72.108146 130.616838 109 90 133
-251.576191 -91.464748 143.004209 33 26 47
-259.554701 -135.771646 146.561700 59 37 79
-277.098208 222.602282 112.529260 67 48 91
-277.098208 222.602282 112.529260 67 48 91
-248.647540 185.996661 116.170007 74 61 117
-522.553437 330.233464 97.134668 39 32 53
-229.812246 54.221839 126.497156 97 81 129
-275.213426 215.512691 110.782606 122 102 144
-257.205813 -105.751529 138.588697 105 86 125
-232.881408 44.746426 124.992162 102 87 115
-293.634503 256.983278 105.015355 66 52 63
-249.831110 188.076697 111.229783 139 117 166
-284.630411 -172.955456 140.332300 49 39 69
-284.630411 -172.955456 140.332300 49 39 69
-223.086887 165.676448 111.749822 27 20 55
-255.265670 -115.554538 134.964925 55 41 77
-238.068324 -43.314638 128.618986 28 19 29
-238.068324 -43.314638 128.618986 28 19 29
-251.083677 -109.853556 133.135301 60 40 82
-255.035525 -95.750024 129.567987 81 70 110
-246.653097 -135.172262 132.757741 64 47 81
-246.653097 -135.172262 132.757741 64 47 81
-248.166018 -57.761898 125.613767 91 77 113
-247.918730 -57.761755 125.568754 91 77 113
-217.980521 146.491370 107.713777 87 75 123
-254.116457 -99.609985 128.193361 44 30 54
-266.337102 246.720836 98.049241 80 70 93
-253.993731 -93.261423 126.673204 52 38 66
-273.867827 250.101206 96.634561 133 114 141
-216.095322 102.311824 109.653455 32 24 61
-215.580451 54.683376 113.724500 44 32 62
-215.030920 164.475951 103.839189 29 21 61
-245.306140 -82.555117 124.341279 94 75 118
-278.341263 -173.274913 131.790048 43 36 71
-235.845666 186.529062 99.978525 134 115 166
-226.972764 183.848331 99.673444 62 48 106
-226.972764 183.848331 99.673444 62 48 106
-212.742054 146.709619 102.227384 103 91 141
-220.382302 186.294124 97.072297 134 115 166
-258.439010 210.640798 94.117719 61 47 71
-271.164411 -174.864044 126.586419 46 38 69
-207.225447 166.732303 95.818025 45 32 78
-242.739897 -93.117514 117.221147 80 69 102
-255.696302 213.158462 90.711290 118 99 138
-220.221310 183.204291 92.804510 64 51 105
-220.221310 183.204291 92.804510 64 51 105
-267.649644 -169.329800 121.357423 104 84 127
-221.947824 185.428558 89.741689 131 114 165
-523.420423 317.650757 80.003053 78 66 108
-240.032821 -91.142382 112.393648 106 89 126
-199.045884 182.901714 88.726026 64 51 105
-199.045884 182.901714 88.726026 64 51 105
-239.818543 -95.540359 112.384206 46 31 58
-240.585785 -93.110146 111.782342 105 88 125
-266.530185 -174.381747 118.801481 51 41 77
-266.530185 -174.381747 118.801481 51 41 77
-229.628080 -135.318198 115.051252 125 101 141
-229.149597 -118.651023 109.994012 58 41 75
-245.537835 210.186217 81.551534 127 106 145
-204.818308 182.138131 81.661111 67 55 113
-204.818308 182.138131 81.661111 67 55 113
-243.748599 213.230322 79.142743 48 38 55
-242.702144 233.770785 75.797159 83 61 103
-255.008107 -184.894814 110.054666 34 21 43
-258.449894 -175.130596 109.028226 46 38 69
-240.584605 215.716956 75.630266 49 36 60
-160.653295 99.652856 82.569772 86 73 127
-240.027230 218.273399 73.983747 53 37 60
-156.056570 56.780715 85.699731 51 33 70
-156.592729 68.178634 84.710676 109 92 136
-165.036362 103.308351 81.143361 30 25 70
-161.802202 -27.243819 92.086584 50 36 64
-161.686560 -18.515655 91.186887 49 35 69
-252.202039 -171.259060 105.590516 91 78 122
-238.686221 215.728352 72.107297 123 104 143
-166.571476 111.253653 76.881677 84 74 121
-151.500396 16.301922 82.689268 50 36 72
-154.157680 20.597432 82.120401 110 90 135
-164.035233 98.989517 75.705320 119 101 148
-152.424532 23.885492 80.155927 47 37 80
-247.096592 -176.756158 97.976381 40 34 69
-148.878800 70.390151 73.597986 48 35 67
-517.181628 346.235547 58.778554 126 100 136
-231.821662 -170.203652 90.172273 39 33 52
-161.445051 104.680375 64.480478 61 43 96
-223.040044 211.754511 56.834394 51 40 66
-222.466373 216.209910 56.106931 74 54 101
-231.222599 244.971547 53.593999 146 121 165
-136.061322 55.066953 65.034658 61 44 81
-136.061322 55.066953 65.034658 61 44 81
-209.067988 -173.693838 86.413175 83 68 106
-133.055519 43.197147 63.398820 52 35 72
-131.923309 73.603991 59.805757 36 28 59
-131.923309 73.603991 59.805757 36 28 59
-148.577312 177.766369 47.948820 88 71 128
-148.577312 177.766369 47.948820 88 71 128
-532.669395 347.152457 51.034910 30 28 57
-127.609717 86.373833 54.619962 43 30 68
-127.609717 86.373833 54.619962 43 30 68
-162.406268 -67.018106 68.155748 44 32 54
-162.406268 -67.018106 68.155748 44 32 54
-137.679216 177.540813 45.526678 88 71 128
-137.679216 177.540813 45.526678 88 71 128
-125.264099 159.116761 46.250135 46 35 75
-178.251907 -172.288027 74.695665 137 117 140
-144.326105 177.181379 42.630845 81 66 123
-121.901783 97.875754 47.875196 36 27 60
-121.901783 97.875754 47.875196 36 27 60
-69.785052 -186.942258 67.277509 94 70 100
-209.081572 224.231444 39.381772 113 96 140
-512.337559 298.616705 45.802194 43 35 75
-204.484772 228.580794 34.059602 119 99 142
-121.968692 78.431559 41.347867 78 69 120
-121.968692 78.431559 41.347867 78 69 120
-118.254775 123.956383 36.007768 103 89 137
-124.520709 133.382992 34.569246 99 83 131
-54.322409 -280.412497 57.463628 108 82 106
