ply
            format ascii 1.0
            element vertex 6945
            property float x
            property float y
            property float z
            property uchar blue
            property uchar green
            property uchar red
            end_header
-212.612367 -166.278231 765.971184 117 101 124
-99.045730 -164.105296 740.525770 52 42 85
-329.836440 -85.213470 814.969349 117 101 124
-361.769605 -201.144671 764.817429 124 101 106
-158.004630 -136.011612 759.446573 25 25 55
-209.104347 -75.148183 851.862240 74 59 110
-415.627098 -132.492626 796.042728 126 96 109
-204.001093 -72.753084 850.884247 74 64 117
-129.772067 -196.697962 740.820360 81 58 72
-253.286743 -118.459797 782.410812 113 103 126
-251.334095 -76.396489 859.135056 28 25 57
-382.755971 -136.501765 788.069296 101 80 105
-77.795440 -85.917532 745.047474 45 37 78
-124.824476 -69.537586 776.174307 60 45 66
-301.792693 -203.377867 757.509422 120 101 128
-214.429450 -110.772669 778.687954 113 99 135
-274.575615 -158.304691 771.169472 96 83 109
-339.770913 -219.654012 757.341242 106 87 112
-222.517991 -86.357099 791.942549 84 74 104
-277.930021 -105.171394 858.209801 115 101 129
-208.038592 -98.058510 784.506130 103 88 119
-234.620237 -35.051507 886.141014 79 68 124
-186.253703 -109.353673 767.625141 96 79 90
-208.049631 -72.777641 851.973343 89 71 108
-276.558948 -158.763647 772.147751 88 76 104
-69.989556 5.206995 755.207253 86 75 131
-298.057938 -130.830181 782.101965 111 96 123
-222.017336 -245.790958 761.460400 119 101 130
-165.659511 -116.041160 763.856888 58 50 73
-148.331773 -214.793253 740.171671 110 88 117
-199.129474 -114.486253 774.361897 93 80 118
-149.330544 -76.467603 780.296850 72 64 117
-127.189577 -111.570680 762.425804 69 59 112
-90.065342 -65.941328 750.333929 66 57 108
-269.733906 -93.030095 803.031921 108 93 124
-204.622221 -65.640914 853.066349 80 67 119
-278.522348 -183.472121 767.097473 121 102 123
-363.550854 -169.673252 774.285603 104 86 99
-195.446932 -75.891560 789.695024 81 71 124
-257.495499 -98.495364 795.940351 115 102 134
-383.805490 -145.443153 785.875034 129 103 126
-255.600572 -222.448993 760.354996 116 101 132
-237.175179 -66.725373 858.745384 83 74 131
-229.299974 -96.686518 791.044378 106 80 93
-192.450476 -85.028487 786.820841 62 53 109
-153.843272 -228.021383 756.368637 140 120 143
-178.242123 -48.540312 851.674461 84 75 131
-170.426500 -39.348179 846.400356 50 41 92
-247.019601 -223.700857 757.824850 119 100 125
-229.788232 -176.638162 766.329288 117 99 128
-194.408965 -244.104505 756.766510 122 100 128
-268.444324 -96.829218 798.349190 108 94 118
-200.926185 -223.088098 758.584261 127 107 130
-227.075362 -79.762441 853.619289 77 68 108
-283.425808 -112.030244 796.939945 120 101 122
-286.364031 -50.254333 898.370361 49 39 55
-244.215417 -137.796223 775.945377 110 90 113
-326.343060 -135.873282 789.300108 129 106 134
-309.201241 -113.573766 800.780773 117 98 123
-304.698372 -108.015633 802.184296 114 94 123
-348.699236 -230.385900 755.497313 113 98 126
-48.137218 -155.959642 734.062338 59 47 97
-84.183526 -121.424174 742.309761 55 49 90
-191.346502 -168.195701 765.677881 130 116 140
-196.830952 -136.469126 770.001793 103 84 103
-177.272236 -233.478618 759.218025 135 115 138
-286.776829 -100.276172 801.227856 108 98 121
-180.748451 -36.032280 856.717777 46 33 79
-185.663211 -147.415578 765.602493 89 74 106
-231.997371 -219.861364 763.057995 118 96 124
-166.506708 -44.844869 841.697121 90 75 126
-176.673090 -220.380759 756.790113 120 102 131
-360.740662 -261.507821 748.502111 119 100 125
-401.186323 -125.623786 795.027351 135 110 120
-244.545722 -88.697314 795.656919 118 103 135
-238.073826 -36.155388 878.616428 72 65 126
-175.624776 -235.656214 759.727859 78 70 101
-250.761747 -188.771462 762.173843 110 95 122
-305.386329 -104.951799 803.081703 101 88 114
-227.963018 -219.896722 762.037373 128 108 131
-134.395623 -65.030730 778.509998 71 55 86
-225.012660 -86.739886 792.585707 74 64 94
-317.501926 -133.893633 788.342190 138 111 131
-287.682390 -106.467140 799.304819 107 97 120
-327.523422 -139.986885 787.761164 138 115 137
-66.216475 23.257443 759.923124 36 34 70
-143.465436 -167.822838 745.638371 68 63 125
-186.249423 -58.002383 850.929070 98 77 110
-135.551298 -185.629654 753.811026 95 79 90
-278.934932 -155.692697 773.031235 128 108 121
-335.852814 -152.329469 775.942707 125 105 124
-226.231933 -190.949690 763.347054 70 57 79
-258.229899 -122.397876 782.438231 106 91 118
-70.788074 -79.120857 743.726969 46 39 82
-250.361419 -231.616473 747.568035 120 98 123
-216.301346 -226.629090 759.329271 102 88 116
-208.040190 -54.105860 857.834625 88 79 136
-189.438319 -148.591077 766.472673 98 83 110
-201.398396 -58.558095 853.728199 83 74 124
-323.602629 -137.671947 788.600922 130 108 133
-246.705508 -198.491597 759.143448 125 113 133
-150.752258 -73.400468 780.289125 88 73 130
-263.973069 -67.463773 864.560604 64 54 97
-127.366555 -100.441146 764.044714 74 65 121
-312.315583 -147.166610 779.211092 106 91 112
-60.818344 -150.693154 736.221266 75 61 103
-376.000571 -156.316400 779.466057 77 57 70
-136.125302 -3.514092 793.603420 65 57 110
-277.606058 -73.078990 864.839077 37 29 39
-43.602613 24.007899 754.761887 52 76 104
-282.584167 -160.204208 772.421932 83 72 104
-239.828014 -152.248740 772.653961 105 82 97
-220.387650 -232.403278 759.521437 109 90 117
-167.733598 -49.257004 843.207264 88 69 108
-306.876183 -120.337737 798.423386 102 80 92
-293.558645 -51.509112 879.110718 65 53 73
-313.896227 -119.697368 800.020027 130 107 122
-196.564126 -82.724744 788.475513 77 65 117
-284.646964 -133.043969 779.738045 110 95 127
-68.708014 -56.788743 746.528530 88 74 128
-340.674877 -61.020565 831.362152 104 82 101
-276.056647 -86.096644 861.365604 66 56 102
-204.194665 -115.602481 775.265121 99 86 124
-31.511363 -129.463100 730.745220 51 42 68
-231.809092 -111.373448 781.565762 118 104 132
-60.157192 -208.521032 732.856512 62 55 92
-342.655325 -205.463982 760.623407 129 115 139
-181.049228 -155.425060 763.391733 127 105 123
-183.572912 -72.216624 787.359953 81 64 98
-224.838281 -206.606054 762.806082 99 79 92
-279.661131 -80.171913 863.712406 45 41 53
-302.143335 -179.735661 763.994122 92 76 100
-369.328403 -239.943075 754.038763 126 111 139
-85.285330 -116.164243 742.837620 59 49 91
-290.067577 -88.373846 856.247234 112 93 112
-155.943596 -203.080845 753.443098 129 110 135
-166.026425 -204.991674 759.602356 122 107 134
-357.897472 -219.952655 759.211159 131 116 137
-195.814359 -222.010899 758.416367 122 104 127
-160.593462 -52.430713 836.886406 84 71 125
-178.435123 -106.015897 767.836857 93 77 100
-386.808419 -113.355196 797.722912 127 103 115
-370.755887 -223.006225 758.468342 120 102 115
-182.321441 -54.080832 851.206398 83 71 129
-166.735053 -233.787370 759.386349 113 98 126
-333.569145 -95.955181 811.725235 90 77 99
-177.990496 -62.526172 849.001312 84 73 129
-196.482718 -46.665636 856.126499 80 74 133
-209.253669 -188.317704 760.649729 113 97 128
-102.281046 -112.823761 746.655273 55 48 93
-95.976955 -77.248430 749.487782 71 62 118
-347.026300 -240.957236 752.205658 87 73 97
-250.224471 -184.312963 762.295580 101 88 120
-157.128084 -50.656384 830.917358 78 64 112
-148.641491 -91.539425 764.921761 61 54 105
-165.568280 -138.646340 760.216093 34 32 61
-286.225867 -127.435148 781.280470 83 71 107
-181.764543 -82.530046 786.093140 69 55 83
-186.311805 -128.470111 764.359188 105 83 102
-121.078479 -209.249139 738.788176 105 83 101
-250.894141 -172.075379 768.839741 126 113 135
-298.865175 -234.453154 749.292660 109 89 112
-249.911070 -159.017754 772.419357 99 82 109
-344.971466 -98.832142 812.900448 120 101 122
-199.344587 -207.682180 757.976055 113 98 129
-359.099293 -228.876615 756.420135 131 114 135
-348.711538 -246.535397 751.106787 128 109 130
-419.759083 -82.817107 846.969891 118 98 110
-153.172565 -33.194613 827.267933 73 67 122
-210.311747 -106.348073 778.256369 110 98 128
-43.819085 30.040619 756.306696 29 47 78
-162.649035 -50.433093 838.294506 44 36 59
-60.124487 -159.799278 735.147905 58 46 88
-310.128403 -88.701528 846.119595 98 73 93
-227.332640 -63.253361 856.870556 37 31 80
-265.842152 -197.106051 764.285660 120 98 126
-338.086915 -130.219114 797.451496 119 97 122
-219.780803 -31.069198 877.296734 58 50 97
-323.872375 -184.108686 764.426470 112 90 102
-83.272666 -181.358802 737.239790 59 51 98
-371.920204 -186.213779 769.341993 104 91 113
-367.447662 -101.473439 796.856785 108 83 109
-159.340703 -127.951252 760.381126 36 29 44
-203.447580 -241.817284 760.750628 126 108 137
-256.582355 -136.840332 779.064178 107 88 113
-221.677804 -227.859855 759.428215 131 109 133
-171.840715 -66.358382 789.052582 67 54 98
-127.840698 -191.240323 741.880655 92 73 90
-254.658079 -151.882851 774.580050 117 98 113
-323.457026 -235.227752 752.521133 105 88 121
-83.261174 -129.581380 740.747118 58 50 91
-132.172871 -61.432958 778.884649 82 61 86
-192.966390 -137.612271 768.190527 96 82 106
-301.067805 -110.330498 800.741196 130 112 129
-77.007145 -188.805473 736.139727 52 43 64
-162.046456 -76.833969 782.877779 78 69 120
-44.616991 35.362071 755.382204 50 71 102
-271.221542 -102.595878 797.405958 99 85 113
-177.732909 -112.967575 766.280508 69 62 89
-327.650118 -58.845037 859.283543 107 94 108
-286.656642 -89.481491 856.936455 107 85 103
-337.664700 -116.170228 804.771996 123 107 131
-309.393668 -80.964571 851.867008 121 95 109
-353.953362 -176.925993 770.095205 119 93 117
-201.637149 -51.213151 855.550194 104 78 108
-50.573981 -10.003390 745.604134 68 58 104
-192.758715 -88.624996 786.639214 69 58 98
-359.464192 -143.456829 781.968021 135 109 132
-148.607588 -69.527948 782.013941 78 72 127
-195.464909 -202.978516 757.621956 128 113 144
-314.630008 -56.808358 878.310585 85 72 96
-36.465046 -203.291440 730.408144 56 48 78
-275.921965 -213.832951 754.037046 110 87 95
-249.829316 -95.491862 795.291281 107 84 98
-25.086048 -190.634537 730.512094 48 41 74
-227.483511 -186.372876 763.661623 120 103 130
-159.452355 -201.978588 754.370642 116 98 129
-226.363420 -161.382711 768.360853 123 105 128
-105.049539 -12.687050 761.335087 87 66 98
-305.475879 -90.320891 848.098946 110 96 120
-236.981678 -169.397080 769.399309 122 103 124
-350.619388 -84.917152 819.448471 122 103 122
-373.247957 -235.732770 755.173826 114 99 130
-202.930641 -112.679064 775.187159 122 104 135
-234.760880 -177.911472 766.925526 88 72 103
-244.339919 -221.194601 758.355570 113 96 123
-270.185804 -116.652644 788.291550 107 96 129
-331.133056 -118.000591 802.824020 125 108 135
-305.888462 -250.669551 747.079897 114 96 119
-323.494601 -110.767698 804.186916 109 90 115
-359.531665 -196.653211 765.592146 121 98 126
-201.285243 -119.204223 774.100971 87 79 110
-230.516601 -67.048424 858.192921 79 64 96
-279.004908 -69.108444 866.531849 80 70 76
-194.948363 -199.631691 758.674479 130 116 144
-186.010778 -219.585466 757.694912 130 112 129
-254.385304 -104.636908 793.759489 93 73 92
-391.629219 -144.689643 786.053514 113 93 116
-191.960192 -143.322909 768.107510 107 92 119
-221.333003 -63.321340 857.480431 60 51 102
-391.724896 -194.706738 768.984699 117 101 124
-303.039026 -90.696180 848.565483 108 95 119
-313.910508 -116.448140 800.739956 121 102 123
-220.619655 -212.140727 759.272861 106 94 124
-311.041522 -247.156429 749.366140 104 85 112
-245.526862 -98.719013 794.381142 118 93 103
-235.510516 -209.315729 764.190483 125 105 134
-157.581675 -94.963664 765.358639 29 25 50
-315.044260 -211.158824 757.029772 111 95 119
-173.424602 -170.436597 755.435705 114 93 118
-350.559688 -135.398436 783.699656 113 84 110
-245.664835 -84.643865 855.902672 65 53 103
-129.251349 2.659839 792.641449 47 43 92
-213.939643 -123.182046 778.409290 121 106 133
-274.677134 -100.556648 799.014425 110 101 127
-254.005003 -84.172463 857.074833 33 26 59
-262.736702 -205.008769 762.514639 109 94 121
-259.713340 -88.911104 857.625484 36 30 55
-267.176390 -151.206052 772.541952 112 93 108
-175.434566 -199.514496 761.005926 99 83 114
-198.977995 -194.741094 759.234142 100 84 108
-227.051616 -69.339317 855.712509 77 62 100
-345.655799 -194.181657 764.549732 119 94 120
-248.848796 -126.832747 779.764795 96 81 109
-235.878253 -98.693579 792.381811 122 98 116
-170.220685 -43.369368 845.403385 92 78 132
-214.470577 -228.940153 758.774996 68 56 74
-221.051097 -92.116100 790.820980 115 99 123
-214.980841 -90.318424 789.039898 114 97 124
-195.195496 -141.932714 768.322325 97 84 110
-198.479497 -240.682006 760.032082 126 106 135
-295.391583 -158.327901 775.384140 142 115 125
-233.300281 -68.117428 858.412838 80 74 129
-364.134431 -240.031862 754.165697 111 97 125
-244.493318 -148.037446 774.230385 128 96 107
-222.221947 -216.028237 764.470673 94 77 91
-242.325068 -213.734293 757.531929 111 95 126
-269.907594 -126.468360 778.483248 100 83 116
-151.899755 -63.440675 782.384777 83 73 126
-232.233763 -248.325658 761.658716 122 106 137
-246.731400 -172.148073 769.933701 91 81 104
-118.518424 -150.931144 744.555616 47 43 55
-334.138632 -191.450667 764.182091 135 109 123
-142.405307 -121.217430 762.598467 78 65 121
-231.019974 -243.298078 757.852173 121 106 134
-251.721358 -62.204444 863.829708 29 27 56
-179.510629 -68.691182 790.430593 73 65 125
-70.115930 -22.040804 751.981211 80 68 118
-402.007627 -78.530723 850.796795 139 109 120
-385.419011 -134.843874 789.424896 88 71 82
-404.237700 -125.240660 796.146822 123 98 112
-265.194249 -248.787117 745.262575 94 81 113
-97.895217 -213.807559 736.360312 42 40 76
-201.313162 -68.183291 851.785660 86 75 131
-280.582452 -178.012002 767.586327 124 109 137
-251.775146 -87.610608 798.939991 98 85 137
-196.102321 -175.716817 762.359476 125 106 131
-198.255777 -111.605763 774.955845 94 78 112
-141.186786 -62.401599 819.950581 69 58 96
-121.116972 -49.907845 767.974138 53 43 66
-187.412870 -54.595011 851.899433 89 73 126
-387.068462 -130.898535 790.892649 145 120 130
-309.777927 -110.755980 801.930809 122 104 127
-166.283953 -61.917853 842.163658 85 76 127
-150.506139 -128.504097 760.031223 34 32 68
-203.870797 -226.373410 757.407236 71 64 85
-183.248472 -160.410631 765.533495 105 88 115
-255.920482 -208.478069 761.379719 95 77 100
-247.467947 -214.089370 759.275866 114 94 123
-235.199404 -35.381165 877.241325 76 68 128
-289.242387 -231.205535 749.705505 116 96 125
-59.380686 -214.976692 732.219076 71 60 122
-131.263268 -98.913980 763.796234 78 69 120
-123.257816 2.308116 834.865284 95 72 110
-160.616624 -198.605001 755.247355 119 103 134
-151.970851 -230.280495 757.944202 120 102 131
-392.370677 -146.976423 785.855293 118 93 113
-157.383084 -73.617184 782.392454 57 49 96
-141.986966 -97.905636 762.364483 85 72 126
-115.349114 -31.569341 762.880564 41 39 81
-203.559947 -63.326627 853.942776 85 77 137
-207.668090 -242.598009 760.395432 119 97 132
-165.530920 -222.412801 755.973101 94 81 119
-126.490092 -196.064866 740.660477 68 56 78
-367.670989 -155.058038 779.983711 77 53 71
-198.574674 -238.224792 759.982491 135 114 139
-161.287796 -232.410812 759.131670 46 34 62
-45.968965 -33.496794 741.712713 63 54 87
-219.304681 -193.449569 760.885859 101 80 112
-262.696314 -147.006631 772.693205 111 94 115
-318.035293 -108.073854 804.738140 104 90 118
-277.986813 -231.846547 749.718618 122 104 133
-218.715644 -63.855183 856.302738 68 58 111
-215.454674 -195.685458 761.580229 120 102 131
-193.761432 -162.856328 766.351032 97 84 108
-373.157310 -69.573355 828.665924 99 85 103
-259.750962 -192.388678 761.921549 106 89 116
-181.702757 -43.493193 853.442001 101 84 141
-343.663096 -94.360733 814.524364 106 92 116
-365.569758 -67.712283 830.849361 116 101 122
-112.679160 -82.499474 752.273083 69 56 94
-373.217344 -199.275291 765.959167 122 102 121
-215.581036 -211.322355 758.627129 120 105 136
-289.855838 -63.162237 874.685574 64 52 70
-192.701507 -178.326583 761.959696 130 112 135
-89.730883 -47.542587 752.133799 34 30 66
-389.523840 -79.234886 814.440441 125 99 112
-254.610300 -76.896983 859.159756 41 37 72
-170.941019 -203.913641 760.539961 117 102 130
-253.501081 -101.256931 794.514227 112 89 111
-225.649571 -113.536036 779.663134 110 96 124
-179.225957 -204.907846 761.060905 122 104 133
-209.381938 -230.169463 758.224392 106 91 119
-266.524792 -118.261456 785.671377 105 90 122
-342.666769 -152.661598 777.509642 136 110 126
-189.329338 -242.752409 756.227255 108 89 114
-233.544755 -91.157204 794.276714 110 92 121
-223.696518 -70.652276 855.825520 72 59 97
-87.423944 -75.371307 748.507357 66 59 110
-289.759946 -138.187289 778.572989 59 46 62
-257.876587 -186.283076 763.105297 102 85 118
-312.890673 -178.745615 765.238810 119 100 117
-218.607020 -229.548430 757.118893 67 52 66
-290.207481 -174.230516 771.676826 122 106 130
-207.717037 -240.084720 759.495735 129 106 134
-140.802634 -23.602657 788.436222 78 62 109
-226.269007 -182.803428 765.005875 113 100 132
-204.148650 -53.789800 856.177044 83 63 98
-173.905849 -104.858470 766.528273 64 59 86
-63.448817 -189.583290 734.324694 64 52 88
-219.668388 -218.409872 762.600279 128 109 134
-255.168557 -79.320145 858.569336 65 53 95
-115.583420 -212.222457 738.237190 21 22 32
-260.309005 -65.987521 863.185406 38 31 64
-240.902543 -148.880732 774.338675 119 93 106
-149.704373 -134.559178 759.232664 21 22 43
-287.478828 -76.861429 863.679218 86 75 91
-252.427125 -65.146148 862.150764 73 64 114
-259.734821 -90.233904 801.465893 124 107 134
-240.631175 -83.644187 855.381966 92 81 137
-353.656745 -252.502203 749.360371 89 80 106
-340.063667 -217.157555 758.273745 73 62 78
-290.567350 -143.208241 777.288103 105 86 111
-122.353578 -203.352261 739.145279 103 83 96
-312.563062 -232.265878 751.945162 113 98 125
-197.365379 -68.216866 851.353836 86 74 134
-298.725367 -219.890475 753.432035 115 96 121
-337.220383 -87.542820 815.613937 116 97 116
-77.642179 -115.327716 741.327858 57 46 84
-139.193141 -116.654861 761.917734 80 67 119
-267.164779 -242.680335 746.347284 94 81 107
-311.520696 -104.004264 808.221436 100 84 108
-137.636435 -228.239965 754.748964 132 110 129
-294.653893 -247.983980 747.059822 83 71 99
-280.258560 -237.309003 747.737837 129 110 135
-406.091309 -81.556058 873.486328 119 89 102
-80.518430 -189.973164 737.193871 54 44 67
-53.637564 -134.923887 736.962461 92 70 122
-336.003041 -186.914361 764.118814 128 99 122
-119.973779 -119.733751 762.250566 49 39 69
-101.722383 -198.283255 737.897587 40 35 64
-227.055788 -236.223459 758.001614 111 95 126
-146.838677 -102.947104 762.682533 88 75 129
-283.539534 -109.005284 797.908020 119 105 129
-251.271510 -210.815620 760.303593 113 98 126
-140.333629 -64.916545 819.901276 72 58 82
-176.452279 -34.617072 855.479527 101 85 138
-45.052025 -176.302230 732.957602 82 70 128
-94.264054 -162.677312 739.142704 51 43 83
-261.526728 -128.736770 781.143045 132 111 126
-299.134779 -147.020352 777.909422 120 105 132
-181.289256 -50.877017 852.154064 89 76 132
-306.606030 -152.479470 778.792000 115 94 119
-275.305629 -162.745535 770.074701 95 83 111
-252.680206 -152.405155 774.043274 76 57 72
-311.613369 -185.671580 763.850737 128 105 120
-294.478893 -95.653099 851.143265 103 80 102
-293.096089 -169.597280 773.871660 103 88 116
-181.681049 -200.787139 760.978460 112 95 128
-284.190059 -61.823040 874.275589 57 52 73
-247.780871 -156.970775 772.506285 114 100 124
-275.779676 -250.976181 745.254183 98 84 120
-305.890322 -158.007681 779.290676 118 96 114
-131.300330 -133.602178 751.316214 64 54 77
-422.450495 -112.174499 804.655266 117 98 115
-316.940522 -199.701834 759.760714 111 98 120
-135.556364 -205.434895 740.739346 128 109 136
-362.032175 -243.355083 754.186296 111 96 124
-182.516658 -46.148905 853.230000 64 53 99
-173.624694 -201.791406 759.973764 127 108 135
-360.104704 -68.068159 829.810047 102 83 102
-270.026779 -122.832561 781.573915 106 91 122
-159.228265 -33.998728 833.616924 95 76 119
-248.521566 -85.731328 855.599308 74 62 110
-114.022899 -93.684840 751.019001 66 61 116
-112.457740 -99.185610 749.891376 77 60 87
-210.594749 -193.180299 760.557652 118 103 130
-127.964079 -230.885029 737.277126 142 118 136
-360.878682 -191.393840 766.776180 109 84 110
-247.355509 -154.845726 772.996283 112 96 120
-184.520984 -199.643898 759.084511 119 100 127
-218.597436 -90.140855 790.604210 108 93 120
-253.737903 -132.262111 779.369640 106 91 118
-229.255319 -159.299839 771.160507 101 86 118
-336.315441 -110.238230 810.359287 102 84 113
-318.257499 -195.372343 761.544323 109 96 112
-61.815113 -130.019677 737.796307 85 69 122
-340.594864 -85.105371 817.143440 109 90 115
-317.012429 -138.705981 786.948204 116 91 117
-265.348196 -92.447233 803.586578 126 113 137
-167.548025 -209.108567 757.817602 117 101 132
-217.046428 -218.737435 761.720324 109 94 122
-359.766626 -214.300156 760.514736 109 97 115
-134.220588 -23.880640 786.472082 78 62 86
-296.043277 -228.078961 751.557255 118 99 126
-389.383912 -147.716713 785.497189 119 98 123
-172.599769 -74.669605 785.575676 65 60 121
-287.303400 -49.915341 879.087639 55 46 66
-127.756822 -153.807807 744.887543 82 70 106
-354.569387 -203.527689 763.090086 97 89 100
-194.409776 -239.771581 760.230207 102 84 113
-324.660444 -148.386192 785.573244 108 84 96
-238.400388 -69.143200 858.898926 91 78 134
-156.595480 -193.423569 754.878616 117 103 131
-317.015886 -252.728438 747.139978 90 80 110
-165.328705 -101.751912 765.844727 91 77 131
-155.116785 -52.420592 829.572678 73 61 111
-251.284814 -239.049339 746.969128 106 86 109
-140.745878 -181.310904 752.183008 94 78 95
-177.399802 -200.049829 761.168289 119 107 135
-307.953238 -143.599212 778.425980 92 79 103
-353.344226 -91.383785 816.392708 128 99 108
-98.092920 -65.445983 751.500702 81 70 126
-249.440813 -168.307686 771.076393 77 61 78
-263.254237 -159.628868 772.437143 93 81 111
-103.047740 -175.206280 739.734030 73 61 111
-285.997510 -142.366838 777.190638 103 89 113
-290.524817 -78.108227 861.380100 99 79 98
-293.379474 -200.303650 757.764673 109 93 124
-99.511003 -181.094670 739.517212 58 42 83
-268.763924 -82.089835 862.481689 53 41 77
-402.646112 -77.582216 817.232227 126 104 123
-50.811213 19.062911 755.600643 86 108 133
-120.869672 -2.261411 890.778160 79 72 129
-90.017408 -192.065680 737.600040 53 44 84
-124.595678 -63.145953 777.699614 58 45 67
-360.976219 -77.998602 823.679352 116 91 105
-346.388412 -111.463237 806.806278 118 93 113
-335.316801 -76.929599 818.395805 110 91 112
-366.914105 -234.296632 754.986763 105 92 124
-362.964368 -185.161304 768.679380 130 105 125
-189.350247 -236.160922 759.572649 107 91 125
-74.518716 -169.019294 736.460829 33 27 62
-274.758530 -78.773880 863.274193 39 35 54
-182.452309 -165.311158 763.207960 127 112 133
-188.717151 -135.639632 768.679094 84 75 95
-244.315028 -119.001055 783.846474 114 99 130
-123.370409 -117.027199 758.406162 54 48 73
-231.718707 -230.475068 760.870266 131 108 130
-289.498687 -206.363177 755.432940 69 63 94
-373.904014 -106.647444 797.307158 87 68 83
-198.496246 -181.868255 762.038469 135 114 136
-269.376493 -77.701104 862.296772 53 48 93
-121.693707 -139.719951 745.695257 88 72 133
-230.768585 -62.954593 857.823753 50 46 95
-383.956003 -138.671672 787.271881 128 106 130
-131.495297 -2.406481 792.639351 56 50 103
-279.246402 -71.945602 866.308975 30 26 38
-92.799079 -132.337844 741.651773 42 31 57
-338.996267 -97.282648 812.824059 113 94 115
-206.276894 -229.437900 757.967663 116 104 134
-338.150668 -180.077422 768.077087 130 103 123
-304.889989 -196.970296 759.125328 110 94 125
-279.386258 -105.419052 796.749926 115 101 125
-89.224893 -144.373584 740.632057 30 27 52
-295.779061 -106.819928 800.003624 115 99 122
-102.302539 -160.419214 741.212034 53 39 80
-151.303864 -167.186141 757.905006 60 49 99
-74.508059 -127.532899 739.705896 48 37 83
-139.004230 -198.792577 754.972267 114 96 125
-307.630491 -137.430513 781.543970 110 88 113
-53.533840 10.898226 749.637461 35 44 77
-204.939151 -239.545012 759.815216 141 114 140
-207.211065 -68.731809 853.342628 92 82 135
-105.024099 -190.748835 739.297199 33 25 55
-156.667483 -143.323255 757.717705 69 59 105
-343.140626 -225.310946 756.778288 97 77 106
-80.735463 -83.968574 745.281315 37 33 74
-218.837929 -199.454820 760.096979 72 57 71
-247.455382 -61.078984 863.383198 29 26 65
-170.426011 -137.639284 761.129141 60 53 68
-196.684015 -153.757501 767.624521 118 103 130
-65.088981 -15.855239 750.851107 84 70 124
-60.939723 -136.228931 736.605549 81 68 122
-229.300666 -71.511722 854.062080 86 76 136
-236.077046 -62.846577 860.246944 39 34 79
-380.021882 -76.718628 813.395214 128 105 119
-114.283085 -66.682553 754.520750 49 44 83
-100.637937 -54.763842 755.158329 27 24 49
-304.255080 -69.594425 861.459160 81 69 81
-366.728663 -140.515196 784.030247 136 112 136
-270.088434 -45.466956 888.735962 106 84 132
-305.550241 -114.351904 800.791264 126 106 125
-358.495164 -246.894121 751.037169 126 107 132
-62.587529 -68.143672 743.429184 69 65 117
-170.967948 -29.654825 856.995106 79 66 122
-82.362980 -119.172263 742.885637 56 48 89
-277.584815 -127.329981 780.571938 109 93 124
-271.729040 -178.006196 767.934227 133 114 135
-287.561870 -66.308862 870.099068 68 58 75
-59.290391 -101.807237 739.114952 56 49 94
-242.500377 -82.462114 855.878544 92 80 138
-365.869665 -144.840121 782.391787 122 99 121
-225.560164 -216.802597 762.575865 126 104 132
-382.413244 -142.696559 786.335707 131 107 125
-364.629722 -206.001091 763.247442 124 105 124
-116.620708 -164.587128 743.336678 62 51 67
-294.910526 -73.505384 862.952805 74 61 69
-189.700782 -189.162123 759.215164 123 108 135
-134.301090 -167.623067 744.703102 67 56 118
-78.632629 -150.702691 739.376879 54 47 84
-337.988377 -69.045615 824.210262 119 100 115
-56.367469 -92.011404 739.982891 49 42 87
-245.910764 -79.237050 858.736801 88 76 134
-323.980141 -113.944459 803.677940 113 94 121
-101.333022 -220.368147 736.179209 48 42 91
-266.373897 -175.319195 766.552401 124 99 125
-114.996326 -200.788713 738.950062 23 20 45
-289.620161 -180.071485 771.480942 113 94 119
-290.275550 -83.364314 858.635330 73 55 72
-367.315793 -109.505916 796.343327 111 90 112
-186.203218 -118.500519 766.563559 56 44 64
-198.140466 -120.143425 772.936773 101 86 117
-264.049625 -155.159414 770.980644 84 67 94
-337.691855 -105.773258 811.203194 79 69 86
-103.803396 -149.238276 742.222023 81 61 90
-326.142216 -176.759267 767.228651 118 99 114
-237.327600 -36.375105 884.934616 73 65 128
-214.048219 -130.290866 773.172760 111 94 121
-368.714738 -265.099216 748.269796 121 95 108
-264.554977 -200.424099 763.491344 72 62 92
-96.884149 -69.705069 750.932598 81 71 131
-219.363475 -123.577487 780.270481 97 82 114
-240.341973 -129.868257 781.162739 103 88 116
-47.779420 13.714929 751.532030 100 128 152
-156.774867 -227.246261 755.075979 137 116 131
-64.273685 15.209754 759.059858 37 33 69
-358.327293 -78.330624 822.673416 62 48 66
-185.618770 -155.645394 764.757252 107 91 115
-315.822434 -178.490806 763.475084 122 101 116
-167.389476 -215.026641 755.172062 115 100 128
-290.833282 -183.990562 771.368361 117 101 132
-194.563246 -188.701689 761.931324 121 107 135
-343.119550 -248.847175 749.987555 117 101 124
-248.656893 -82.266515 856.048393 68 57 103
-384.567237 -214.154434 763.362074 99 83 106
-115.545034 -44.609424 758.761454 41 37 72
-336.608624 -243.285751 751.032829 122 105 132
-159.717393 -107.001185 763.937378 38 37 63
-340.183449 -119.804454 804.662895 122 104 133
-91.990900 -172.573864 738.616419 68 57 107
-386.507201 -202.147555 766.976547 114 96 119
-294.145966 -107.019687 801.281738 117 103 127
-43.600187 -190.974295 732.319927 40 33 76
-278.382826 -242.260480 746.840143 82 76 101
-231.596923 -217.377257 763.559151 123 104 131
-199.420476 -182.847989 761.567068 97 82 113
-328.860760 -184.845877 765.784311 107 84 112
-286.665177 -246.405911 747.315741 103 87 94
-69.674897 -0.836404 755.729437 85 75 128
-190.750182 -187.259746 760.276365 133 116 143
-318.680501 -158.771515 781.395292 112 91 113
-242.007732 -236.520815 754.201078 127 107 120
-176.118040 -63.960731 847.707367 49 39 85
-191.436493 -205.523062 758.231735 122 109 135
-218.019629 -239.249992 759.293652 123 102 127
-126.097751 -160.230267 744.332933 86 69 106
-175.704336 -99.147201 769.252729 94 81 133
-401.050425 -177.631700 776.875830 109 94 121
-217.457628 -174.947727 760.096598 134 112 130
-185.483289 -151.131928 766.366148 113 92 117
-263.952470 -148.654151 771.895552 110 89 111
-179.473627 -207.803273 761.063194 138 120 149
-327.859116 -60.820198 884.899426 98 85 109
-175.004065 -207.839441 760.842705 127 112 139
-154.468358 -165.412390 757.729006 77 61 114
-345.397902 -87.260026 816.853237 127 111 129
-271.975827 -91.804528 857.697773 68 59 102
-356.309342 -68.897367 828.327847 132 109 123
-100.985193 -121.152484 745.239449 37 31 72
-112.041676 -107.065284 749.346161 62 56 105
-275.583553 -248.757172 745.970678 91 75 106
-343.236899 -150.374866 777.722406 118 99 116
-219.084287 -187.429857 762.236881 89 76 92
-179.225636 -130.678558 764.485121 59 54 75
-73.958600 -186.681056 736.387682 44 37 72
-176.019025 -202.686429 761.259317 130 116 144
-52.057970 31.173503 758.275938 27 48 86
-388.548565 -82.237643 812.060833 108 84 92
-100.321066 -178.602421 739.396906 37 32 71
-304.332447 -235.549140 750.365162 108 89 114
-101.494503 -26.159611 758.636904 49 45 87
-305.273247 -253.961778 746.390486 97 84 106
-371.866536 -101.796973 798.213053 134 107 127
-91.798162 -36.616284 754.461002 44 41 80
-186.597812 -235.464573 759.732771 101 84 111
-352.269316 -134.545076 783.124352 130 101 124
-150.392759 -11.280312 887.587357 80 72 132
-201.125455 -197.062445 757.565975 107 97 127
-363.649178 -71.156561 830.059433 97 83 107
-308.124781 -78.361148 854.380894 91 78 100
-291.995120 -205.503941 756.291580 110 93 114
-168.773305 -68.388224 844.849110 81 69 121
-304.973745 -130.464280 783.571529 105 88 121
-80.239427 -142.075956 739.750767 38 32 57
-69.838482 -51.757360 748.164606 46 42 78
-184.975111 -237.575245 759.337187 112 91 116
-241.997886 -166.518307 770.909357 121 102 123
-258.413815 -86.531717 858.023071 27 28 49
-289.338136 -72.939420 866.031456 85 68 77
-295.931745 -83.542979 856.371021 84 72 90
-202.441287 -27.784491 865.646267 73 67 122
-96.478426 -72.620898 749.800825 75 68 125
-228.956437 -232.676840 759.547806 76 60 78
-229.894638 -134.093976 776.600266 113 90 104
-217.655611 -197.101903 761.420298 128 109 130
-240.278935 -36.528975 878.039837 59 53 102
-326.213932 -114.494157 803.805637 124 103 128
-369.460011 -118.555403 792.317438 96 74 98
-149.142849 -182.158935 752.990484 102 83 100
-123.861039 -180.558312 741.716576 70 59 79
-59.611458 -109.277749 740.318871 84 69 120
-296.275234 -95.245034 849.461555 111 89 107
-221.815252 -132.341766 780.608940 119 101 130
-217.974567 -67.063564 855.464458 57 48 99
-135.351861 -35.615143 784.392214 73 64 115
-114.198601 -61.632711 755.022955 25 25 55
-356.082177 -115.821886 791.519499 127 107 126
-365.254188 -236.935091 754.827166 125 107 136
-81.573731 -213.015485 733.167028 36 34 70
-201.655149 -192.667592 760.447073 136 119 140
-187.617695 -167.125094 764.528275 117 102 129
-90.728807 -41.306263 753.027868 61 56 88
-202.777410 -185.924888 761.691284 96 81 112
-80.108392 -194.259691 736.334801 37 32 61
-113.381922 -127.390742 759.554625 64 54 90
-276.172733 -110.068119 856.867695 110 95 122
-231.120515 -228.688455 761.168575 126 102 126
-241.117573 -156.869268 771.659422 113 99 117
-223.298717 -66.998607 857.160473 70 61 117
-89.248657 -213.832974 736.198711 64 57 94
-384.795189 -136.930585 786.651516 105 86 103
-405.924320 -89.637178 811.254597 129 105 123
-149.808443 -224.365616 755.586672 115 93 112
-339.297748 -67.335874 825.783157 128 110 123
-298.004150 -156.593895 775.966454 120 94 117
-157.444239 -231.224775 757.876539 78 64 92
-274.347615 -122.617316 780.171680 106 89 122
-119.628346 -146.202159 745.183897 42 35 48
-243.420100 -140.324128 776.373482 113 92 117
-142.589557 -84.824735 768.905020 86 69 112
-132.213664 -213.891697 739.520216 147 119 138
-224.489379 -141.000819 772.537136 113 91 109
-346.177745 -260.157633 748.224068 119 102 129
-286.593843 -50.092369 892.402172 50 40 53
-273.208213 -80.721456 862.213516 60 50 96
-85.769826 -200.373960 736.215067 44 40 76
-290.454149 -228.868866 750.627136 115 96 123
-297.550321 -97.207069 785.339785 94 70 88
-119.798434 -49.339080 774.250555 78 66 118
-219.261742 -179.746413 760.001421 125 105 124
-165.366852 -132.139385 755.362177 103 83 106
-223.524451 -77.737737 784.362125 34 31 86
-173.349500 -66.661459 780.443478 79 68 114
-278.341937 -96.182764 784.588766 92 84 114
-290.644646 -66.615933 858.574677 35 35 49
-230.698586 -163.420224 760.425186 102 88 112
-326.953149 -77.805758 790.512371 72 60 78
-126.766610 -62.121868 773.510885 85 76 132
-249.355364 -186.483991 752.726603 116 102 130
-281.065297 -120.936275 763.706112 54 52 72
-41.026857 19.250160 748.324442 79 67 119
-334.622478 -83.305359 789.121437 96 84 102
-273.275900 -104.861438 778.718328 109 96 122
-332.885051 -53.560239 799.084425 114 102 124
-152.377653 -201.403522 753.578281 95 81 105
-264.052963 -99.417150 784.071302 104 93 119
-202.955294 -188.358688 757.231569 100 85 112
-306.963420 -110.911715 782.857847 118 96 120
-436.759949 -68.494660 795.326853 107 82 96
-233.662820 -60.700119 863.878250 46 40 87
-167.455411 -132.955241 755.115223 75 63 83
-165.390980 -74.404299 778.256750 72 59 103
-144.093072 -71.732712 770.683289 43 38 77
-173.011553 -44.237208 858.191490 82 74 127
-172.062337 -47.756234 857.395267 93 69 103
-121.668196 -52.484280 773.951101 68 60 113
-141.468394 -57.784957 776.373911 28 29 73
-198.615885 -72.970092 782.266569 60 54 103
-258.047652 -98.055184 783.626175 131 112 137
-248.676324 -83.850926 785.245752 42 38 87
-281.993484 -173.316419 755.333710 89 80 106
-271.698904 -146.026731 759.594727 79 68 88
-242.486286 -143.572402 765.125608 107 91 115
-281.478548 -162.947643 756.831789 114 90 114
-224.606514 -48.052222 864.217854 84 71 127
-235.269380 -82.342273 784.891891 36 33 88
-238.825083 -160.522985 763.615894 130 97 104
-215.669417 -83.594388 781.650209 107 89 118
-189.108050 -178.863847 758.206177 119 105 129
-210.850954 -78.277367 783.355188 79 66 92
-136.074936 -56.348473 776.218128 54 47 92
-236.237264 -23.750742 880.679131 62 59 109
-79.787761 -115.973449 734.853458 54 43 75
-340.335846 -117.216337 782.022858 110 96 120
-303.954720 -100.495732 784.887934 68 56 68
-42.938319 -140.627587 727.681017 25 22 48
-391.176701 -127.998841 750.616884 107 81 97
-293.063641 -146.264768 759.286451 103 88 119
-300.550699 -156.089902 761.968088 127 107 136
-222.320342 -186.113727 759.647226 98 82 113
-251.366377 -56.063980 865.764332 67 55 85
-207.568216 -101.085889 769.451046 92 79 117
-323.417020 -68.620807 792.594624 99 77 95
-338.989615 -123.943245 775.845814 114 97 124
-317.736697 -106.161630 783.788776 73 60 76
-158.527637 -70.834589 777.340794 74 67 124
-279.101610 -148.129570 759.396219 90 77 109
-168.638265 -128.338385 755.824852 88 72 90
-196.453726 -169.548094 759.769058 108 88 111
-185.042000 -72.652471 780.153942 68 50 91
-186.099172 -147.309124 762.025070 111 90 112
-231.532168 -61.550015 863.064289 65 59 108
-242.191744 -121.960115 767.911911 115 100 127
-195.308256 -106.202030 766.559935 105 91 119
-325.144291 -248.756289 729.679108 85 70 101
-48.559248 -128.386986 729.671621 37 33 74
-78.565645 -175.296044 728.894472 31 30 70
-214.776993 -224.645853 758.705425 117 104 136
-386.101198 -58.359760 835.563087 88 79 100
-411.050701 -63.985109 769.910574 123 97 111
-63.979477 21.963681 752.993536 88 67 106
-215.346766 -230.138493 758.455610 121 103 132
-186.956346 -86.887729 773.719406 83 71 119
-237.761903 -147.758353 764.092588 107 87 110
-309.226847 -103.440845 784.341431 62 54 65
-199.801481 -51.907337 860.484314 89 77 135
-194.255078 -122.040701 764.452982 107 93 129
-185.144436 -193.965888 756.051731 134 114 133
-244.520330 -123.961461 767.816401 103 85 114
-154.084182 -64.825410 777.812672 51 40 72
-288.886142 -177.142143 758.955669 88 77 109
-351.198316 -103.051925 759.043074 116 97 122
-192.818832 -119.356287 765.743637 94 72 100
-270.099950 -138.763821 761.056328 109 94 122
-223.053074 -217.128873 761.319494 123 99 117
-225.222254 -230.248070 758.509541 124 102 126
-221.182966 -90.590709 782.765627 81 71 101
-361.434150 -221.951413 731.786060 69 55 59
-170.944309 -100.447905 759.815454 81 71 94
-194.957864 -124.506199 764.300871 99 85 119
-333.920979 -113.900566 781.995821 101 86 113
-129.608011 -52.835268 774.957657 90 77 131
-43.256006 32.257921 751.459360 95 82 138
-261.574841 -203.298211 755.348110 118 99 126
-166.931367 -135.003650 754.802752 101 82 97
-186.740971 -143.830335 762.155151 120 94 107
-269.521308 -102.269423 783.470964 115 100 131
-240.433121 -91.838175 783.215618 109 97 139
-220.446539 -87.073809 782.829618 110 95 126
-196.477056 -127.309084 764.301252 91 79 115
-69.194889 -186.267781 729.421997 30 26 62
-300.507903 -109.460485 782.524967 118 102 126
-387.634563 -140.712142 746.612740 130 102 121
-345.026803 -84.374964 788.706541 109 91 114
-182.465351 -195.898938 759.470749 81 68 90
-182.748663 -70.818418 780.932903 80 68 118
-160.444486 -64.232320 778.307295 76 66 112
-306.678820 -159.346986 757.316828 113 91 115
-242.116284 -85.757589 784.232569 30 31 81
-157.602990 -64.265192 778.420448 74 59 87
-117.630041 -218.745923 732.058811 108 87 119
-55.462575 -202.381110 726.204586 52 45 90
-257.423687 -121.788430 769.308567 115 100 132
-331.374097 -178.797448 742.764282 137 113 131
-248.790336 -61.218911 865.658760 65 57 110
-256.382489 -116.858864 769.365597 106 93 125
-269.858718 -142.446768 760.062027 118 100 123
-148.549771 -58.298767 778.157330 64 55 106
-247.936487 -70.278001 863.549614 81 74 131
-177.406621 -79.117876 779.224634 90 78 130
-412.282372 -116.560066 751.036072 114 95 120
-179.074454 -199.047744 760.034084 125 108 135
-88.740629 7.282256 755.641508 63 56 107
-98.369795 -107.936049 739.942503 77 60 97
-206.549144 -117.460954 768.154669 120 105 132
-180.784941 -193.333530 762.010670 131 109 133
-196.774852 -51.961422 860.835648 87 78 135
-271.938944 -108.522308 778.565931 97 89 120
-188.702917 -163.403523 761.271429 111 96 123
-192.051184 -106.701887 766.570854 100 88 118
-301.278830 -141.004097 759.973669 117 102 130
-200.409818 -43.047866 862.674809 68 57 113
-302.323699 -203.645921 739.679289 126 105 114
-322.165585 -141.497183 764.178801 137 110 130
-253.686094 -120.799768 768.792295 115 102 134
-126.710677 -192.739356 735.471296 99 80 101
-246.798706 -121.598554 768.748188 101 84 118
-198.902881 -223.539495 758.116627 122 110 140
-242.313266 -152.202785 765.335608 116 96 119
-234.636045 -218.233681 755.017376 118 95 109
-184.114504 -100.223625 760.285997 96 81 112
-255.302954 -91.605079 784.083605 106 80 98
-204.659939 -206.555843 756.144905 114 94 123
-208.581471 -165.625751 762.233877 108 90 119
-253.353596 -176.041889 754.844618 100 84 115
-209.717703 -182.093608 758.440113 120 104 127
-338.347316 -108.458006 783.604050 93 68 82
-203.859925 -221.956849 758.997822 123 108 139
-48.305041 -7.020056 742.756367 72 66 119
-329.874802 -127.774155 768.789911 112 92 111
-276.783872 -167.538345 755.841923 104 84 113
-178.771591 -215.204597 758.931971 119 96 124
-252.151513 -98.046046 782.479572 100 78 107
-147.347116 -67.929536 776.469994 75 65 118
-158.843851 -74.206877 777.070475 71 65 122
-306.428218 -148.407805 761.636019 109 94 122
-222.229886 -80.384433 783.396435 97 84 138
-311.989164 -42.441279 873.544884 62 54 65
-251.058412 -65.451837 864.879799 27 23 64
-253.361011 -88.496673 785.157776 90 78 130
-81.279135 -111.035061 737.155056 70 60 113
-167.860281 -120.674288 757.573652 83 70 94
-204.283237 -191.951752 757.675171 116 97 122
-247.749257 -64.876795 864.880276 46 44 90
-305.757618 -63.188642 849.248314 69 60 81
-188.994658 -119.610822 765.105247 97 80 117
-161.213768 -61.805636 779.533720 79 63 97
-91.756940 -140.435219 735.544968 83 71 119
-343.932271 -78.296620 790.373659 66 53 69
-223.129129 -176.194096 760.386467 131 111 130
-200.979042 -76.917160 781.903934 64 56 103
-217.599511 -52.004355 863.199329 98 74 108
-329.633284 -55.949748 798.495960 82 76 93
-255.565548 -136.642051 766.813707 116 102 126
-313.510466 -112.549031 782.245636 108 89 114
-250.000906 -209.284616 755.025339 117 96 121
-313.471794 -109.500921 783.703756 96 77 102
-185.754526 -219.854522 758.156204 123 105 134
-121.035159 -63.620281 772.078371 71 65 124
-163.759589 -200.277877 760.496998 131 111 134
-368.880463 -78.626758 763.603020 89 73 91
-351.892424 -207.835960 735.559893 128 99 124
-185.068905 -188.071799 760.612154 114 99 126
-138.523483 -92.929906 756.047440 48 44 93
-370.006657 -139.423299 747.694635 126 95 110
-249.805713 -140.982902 765.918016 108 92 123
-154.373419 -90.370339 758.671665 55 51 100
-211.804032 -101.633751 769.816256 135 120 147
-157.860482 -107.471013 755.822849 59 54 75
-170.328343 -203.153706 761.695147 136 112 136
-33.597770 -80.863202 729.591990 58 52 99
-185.874259 -130.640376 763.109446 103 84 111
-326.783228 -157.982337 746.253586 85 58 84
-255.635929 -234.091330 737.951231 124 104 127
-187.738788 -83.075351 773.696423 75 65 118
-293.417978 -84.068656 848.979664 43 36 63
-304.701614 -97.259790 785.014439 115 99 123
-90.127712 -106.413591 738.161993 71 62 113
-299.590111 -237.047005 734.768295 114 99 126
-206.320453 -225.380731 758.916235 117 102 133
-253.242517 -103.881454 779.091263 124 109 137
-251.388168 -175.847554 764.837408 95 83 103
-207.297254 -185.178196 758.094740 120 106 130
-56.707680 -188.858235 727.333069 60 54 95
-289.463258 -171.255338 758.925343 120 99 121
-244.964767 -168.687963 763.571787 110 94 118
-141.285837 -164.661849 745.483875 50 45 84
-226.469016 -209.405565 762.388039 85 70 97
-305.557370 -153.828359 763.048601 127 105 130
-365.190387 -210.257459 733.497047 112 90 114
-317.228007 -75.224370 791.051149 86 68 85
-334.855461 -126.011562 772.047329 127 108 133
-191.385913 -60.103661 858.642387 74 57 91
-283.753347 -128.052175 762.399197 112 97 129
-278.037763 -233.423996 736.425304 85 68 79
-174.685121 -108.093929 758.875275 97 82 109
-352.053547 -251.380539 726.819086 98 88 111
-398.927760 -141.068423 745.176125 125 99 117
-249.147010 -93.710828 784.022093 100 89 122
-297.760391 -245.580196 733.833170 110 90 113
-223.463392 -68.200922 860.287380 72 66 121
-173.213482 -213.896179 758.540916 133 114 141
-232.179666 -213.306570 761.212444 122 106 137
-68.713397 -172.046065 729.120398 42 38 79
-65.294194 12.506874 751.174021 90 77 133
-281.737375 -156.587684 757.406187 112 97 125
-198.403132 -113.796198 766.138840 97 86 112
-233.272362 -92.115319 782.754898 113 91 126
-155.863011 -56.979018 779.439116 68 53 80
-202.428794 -224.384451 758.702946 110 97 121
-233.978319 -207.231379 761.979532 136 115 140
-352.897286 -229.129910 730.841637 107 86 108
-247.663379 -135.596097 766.450691 118 102 126
-261.252809 -142.934620 759.474182 101 90 110
-315.535307 -118.363547 775.132942 100 88 108
-245.480061 -150.766253 764.434671 111 92 117
-183.444297 -190.184784 762.637901 137 119 136
-256.700826 -54.208434 866.895199 51 44 81
-330.849361 -51.850474 799.124336 100 87 113
-200.978780 -54.656398 860.332775 86 74 132
-84.155458 18.942292 795.282555 91 74 125
-243.843031 -171.844590 763.206148 113 94 121
-224.397683 -84.297961 782.791996 95 82 138
-245.983720 -133.179629 767.522621 103 86 113
-112.128317 -189.025676 733.849382 103 79 89
-199.580848 -189.313316 757.552052 124 106 129
-194.105721 -219.277740 758.831787 131 115 146
-285.406160 -122.615445 764.248991 73 67 92
-92.077398 -73.093921 742.002439 81 68 124
-267.755318 -85.759962 790.534687 86 72 96
-366.707039 -58.061415 797.897673 117 105 123
-248.813415 -53.900367 866.753674 53 43 89
-22.258489 -150.404727 723.718119 50 44 75
-221.532726 -207.948279 759.918499 103 90 116
-299.448752 -182.005227 744.291735 106 84 112
-211.296034 -208.036780 755.940151 123 105 136
-192.628551 -35.836974 861.777210 86 73 127
-116.148043 -141.553998 739.370584 24 25 53
-264.895082 -112.581992 771.198273 111 97 125
-180.353951 -66.568404 780.927467 96 82 130
-400.948238 -125.595629 749.065304 132 109 124
-293.327832 -152.365994 759.972620 61 44 58
-211.761355 -105.449784 770.135546 135 119 143
-138.411629 -83.703250 762.922096 68 58 111
-110.233378 -89.172029 743.313932 71 62 112
-236.306787 -227.592635 754.084539 125 102 130
-406.988859 -62.491655 818.564224 98 84 108
-192.542779 -137.249756 763.092470 99 84 112
-316.489244 -176.356840 743.141842 120 99 121
-230.829668 -221.973562 760.702324 122 105 126
-246.969819 -91.531414 783.038044 108 90 131
-368.474007 -206.822252 734.307575 88 67 92
-246.632481 -161.849844 763.540125 123 97 121
-273.713088 -99.361175 783.207989 115 102 128
-204.323697 -111.250913 767.931700 90 79 111
-111.707115 -196.477509 733.625126 90 71 92
-85.891968 -44.237119 743.467999 69 55 79
-274.518752 -93.382293 866.048241 51 41 71
-211.156583 -40.482140 863.911152 79 72 129
-353.440475 -129.877687 752.630329 127 107 126
-281.842971 -70.892006 864.159870 56 53 99
-70.117635 -121.864259 733.278131 51 42 82
-280.651045 -179.752159 756.588840 106 94 122
-367.324805 -166.883326 742.864752 125 102 124
-143.313217 -75.580853 769.700670 76 68 121
-251.333117 -112.960839 769.998980 88 73 100
-22.681412 -167.341042 722.969580 36 32 68
-173.637867 -55.072445 855.839252 68 54 82
-281.773663 -35.524800 876.516247 108 83 121
-197.705007 -132.138205 763.903666 103 88 120
-195.335257 -115.064216 766.298914 105 91 119
-212.243414 -185.402560 757.689905 76 61 92
-47.490817 21.461716 750.162506 50 49 88
-279.886270 -100.651014 783.145618 120 105 133
-318.713188 -151.021361 762.970018 115 94 116
-180.102921 -161.189902 762.215376 102 85 112
-95.616937 -175.839281 733.252573 96 86 146
-128.631365 -56.089646 775.098515 88 76 128
-369.430161 -159.718633 744.654655 124 95 121
-237.076831 -72.202003 862.036800 81 67 109
-224.784589 -166.760433 758.718204 98 86 122
-270.250010 -71.646243 864.649773 61 54 97
-237.928605 -123.130071 763.992119 121 103 132
-338.141465 -77.937013 791.141415 105 83 101
-350.219440 -245.134711 727.703619 123 100 122
-210.469294 -74.253762 783.020115 78 67 93
-285.383129 -92.715389 785.484838 112 84 107
-247.685027 -164.812207 763.889360 91 69 87
-86.286175 -133.935475 735.092020 38 32 73
-42.494950 -31.391308 736.060286 25 24 56
-83.300453 -70.905828 740.816975 65 58 103
-164.693034 -107.559144 757.029915 96 77 98
-160.099828 -4.300546 927.056599 97 83 137
-243.151736 -220.253253 753.768492 121 104 131
-375.226259 -225.766516 728.850889 121 102 121
-229.705691 -226.967955 759.511423 132 113 140
-213.276601 -135.228157 765.159321 95 79 113
-348.927569 -82.470173 789.343452 93 74 95
-188.144636 -101.516485 761.852121 98 84 112
-248.170686 -147.616804 764.748859 109 93 116
-179.298639 -9.226549 868.810844 63 52 92
-322.159243 -83.475041 789.658022 113 85 105
-225.905919 -235.444427 758.139277 119 97 126
-326.906419 -130.099332 767.992258 120 101 122
-244.608808 -115.576029 771.918488 104 89 120
-58.272153 -63.790321 736.163092 48 41 86
-211.585999 -125.608122 767.642307 58 45 69
-313.171673 -42.671180 887.708759 48 46 66
-246.209145 -212.713218 754.416418 79 65 89
-274.225283 -159.496295 757.453394 123 104 123
-213.934374 -198.149276 757.161808 85 69 76
-227.157497 -52.332360 864.224720 82 74 135
-301.594949 -56.859022 856.594944 50 40 57
-250.489378 -72.601670 863.204002 93 80 134
-195.044768 -141.265845 762.166309 102 87 115
-296.035671 -80.834025 848.948383 45 39 56
-307.920218 -76.921666 839.553165 86 74 94
-205.423331 -63.573837 858.796597 79 63 94
-28.887048 -134.228361 726.644278 42 38 79
-123.581266 -125.978601 759.649944 98 86 136
-351.731753 -233.204484 730.539322 121 102 119
-244.784760 -137.242675 766.629744 93 76 110
-140.408671 1.977389 870.395279 106 83 115
-274.159145 -60.906321 867.549324 56 51 96
-209.199715 -223.173022 758.953142 119 107 137
-279.164076 -126.879108 763.162518 112 100 130
-254.761863 -131.808352 767.314577 115 99 130
-276.282334 -67.741412 866.252422 30 27 53
-234.035158 -23.838110 882.777977 69 63 118
-187.465656 -185.311151 757.451677 134 118 136
