ply
            format ascii 1.0
            element vertex 20410
            property float x
            property float y
            property float z
            property uchar blue
            property uchar green
            property uchar red
            end_header
-210.382771 -127.928308 357.779503 59 40 61
-210.382771 -127.928308 357.779503 59 40 61
-217.916322 -349.313990 391.716480 80 60 79
-209.928918 -156.863312 364.259243 67 52 73
-218.565798 -402.055661 397.491932 80 59 81
-205.705523 -61.136255 347.623825 75 62 86
-207.032037 -105.394689 352.336597 67 55 73
-187.339139 164.724549 172.139072 105 85 132
-187.339139 164.724549 172.139072 105 85 132
-209.318256 -171.045510 363.487434 75 60 81
-210.541821 -211.326424 366.181087 136 117 134
-218.668795 -427.457110 402.260208 73 61 81
-218.668795 -427.457110 402.260208 73 61 81
-212.613177 -287.545625 380.490685 67 54 80
-211.546063 -320.859734 380.219269 70 56 80
-159.465384 253.722271 -171.697712 92 72 114
-158.298993 254.899009 -181.269455 144 116 159
-207.411313 -288.875309 374.490547 72 63 84
-156.712127 259.308823 -186.447525 46 41 70
-159.630537 179.916462 -165.795517 69 64 103
-159.630537 179.916462 -165.795517 69 64 103
-202.148533 -173.744682 361.205196 59 46 60
-189.039850 89.377900 266.534424 31 25 56
-159.414792 180.173846 -163.913536 69 64 103
-210.049772 -429.127137 393.083668 67 50 77
-180.151272 160.645100 170.836926 52 37 75
-201.632619 -214.455859 357.920742 70 55 82
-157.707214 210.000690 -164.475346 49 38 84
-195.539117 -62.716291 337.807560 51 39 57
-205.740023 -394.090477 384.296703 79 60 87
-203.744841 -350.032035 375.445747 68 56 74
-204.638433 -384.243289 381.144428 85 65 77
-204.638433 -384.243289 381.144428 85 65 77
-151.896572 252.496418 -180.090427 89 68 107
-151.896572 252.496418 -180.090427 89 68 107
-193.133807 -215.071718 350.910282 70 60 77
-182.462502 -141.100029 223.190975 27 23 58
-168.313384 183.680435 151.521397 71 53 100
-174.652767 92.654856 236.733627 31 27 69
-179.545999 -146.870867 224.996281 95 83 135
-179.288626 -150.757483 231.143761 35 26 76
-178.224254 -138.076178 226.711178 74 68 121
-178.159976 -138.261441 227.819061 74 68 121
-173.501468 73.643728 253.274441 33 24 51
-173.501468 73.643728 253.274441 33 24 51
-190.905094 -384.673897 365.992451 76 63 77
-164.978719 155.662664 156.692410 58 43 74
-186.464500 -292.959944 355.003643 73 54 71
-188.975716 -379.240004 362.171173 134 115 130
-183.695745 -217.715804 343.412781 61 45 63
-187.275481 -374.880949 358.882618 66 48 61
-174.564886 -152.110950 225.435162 99 86 142
-175.698018 -229.406444 215.361214 37 35 71
-173.258448 -128.742007 227.968121 66 58 99
-143.366694 252.640685 -181.046486 105 84 129
-182.709908 -286.935488 348.132324 80 58 83
-160.229588 173.565026 143.077946 54 39 77
-142.026901 259.581216 -188.240528 59 49 85
-184.243655 -430.849854 365.778160 66 46 69
-141.051149 251.068934 -178.527737 155 129 175
-165.210819 58.191403 248.401070 44 34 77
-163.641047 71.960249 240.127754 39 29 52
-163.443017 72.050615 242.858505 39 29 52
-168.051982 -225.391451 210.805893 74 65 116
-168.051982 -225.391451 210.805893 74 65 116
-175.181699 -295.598499 342.248344 43 31 49
-165.725803 -239.229838 175.215340 56 41 85
-165.502429 -230.957309 182.178783 96 85 131
-152.121735 153.270825 136.891460 57 41 75
-171.442342 -345.568196 342.315388 87 62 76
-171.442342 -345.568196 342.315388 87 62 76
-147.662425 196.814772 107.405376 64 53 79
-147.662425 196.814772 107.405376 64 53 79
-170.335889 -356.205789 341.851234 73 60 82
-170.335889 -356.205789 341.851234 73 60 82
-146.556091 171.544250 132.993126 53 39 81
-133.419824 232.458600 -177.386475 106 81 115
-163.064909 -221.271364 321.828175 70 57 79
-145.563173 157.076582 131.840706 51 40 72
-131.586361 259.732898 -188.154030 66 52 100
-154.609084 -111.850385 225.045395 25 23 45
-154.609084 -111.850385 225.045395 25 23 45
-145.265079 144.570466 154.879093 74 61 105
-145.265079 144.570466 154.879093 74 61 105
-166.655684 -430.304448 341.396904 69 56 78
-151.090169 26.124572 238.096619 30 22 52
-161.492419 -299.081985 328.594398 66 47 68
-146.944880 57.319637 206.923389 42 31 77
-155.805039 -178.122965 309.423637 68 58 81
-152.453470 -229.603354 168.456936 72 67 122
-160.412502 -388.749329 314.178944 69 41 47
-151.951480 -240.760318 170.956421 98 86 144
-150.036359 -126.161293 215.514565 81 69 119
-150.036359 -126.161293 215.514565 81 69 119
-142.299819 132.854279 201.448345 54 44 97
-139.027953 155.229863 121.876431 55 37 74
-145.620155 -13.042334 217.809200 24 24 54
-158.164954 -387.458435 314.858150 145 118 122
-149.477792 -240.294448 163.335991 96 87 143
-126.667929 252.733358 -180.061722 110 86 128
-126.667929 252.733358 -180.061722 110 86 128
-142.362666 44.076311 222.779655 54 43 93
-143.749690 -21.304203 224.613762 35 28 71
-147.349358 -180.738954 208.063030 35 29 60
-142.709637 6.413268 228.316784 41 32 58
-155.445313 -379.133741 328.069687 85 65 78
-155.026889 -388.140575 320.552826 107 72 86
-152.157021 -321.321169 319.911575 72 46 60
-141.001964 -10.533153 215.466499 80 68 120
-131.689072 190.442690 93.491650 59 48 74
-140.418315 -29.505906 226.223278 36 28 68
-143.462038 -239.574496 152.962971 105 92 138
-135.428333 43.070885 213.816738 51 41 87
-121.010232 252.278527 -181.973076 106 87 126
-131.202793 128.185936 153.042698 56 46 99
-147.954845 -382.853404 323.507595 87 60 76
-121.378922 207.436343 -170.623875 72 54 95
-130.704665 97.018703 209.681129 30 21 54
-134.941268 -77.948425 221.982861 38 28 58
-144.387388 -402.309195 323.151684 81 60 85
-125.923657 154.339405 113.660431 52 38 79
-131.077600 23.953604 218.140697 41 30 56
-136.599135 -247.014443 157.545567 26 22 41
-135.966134 -240.422145 144.165230 92 84 137
-135.782051 -225.016276 157.800198 22 23 44
-127.749801 91.808745 208.841133 27 21 52
-125.794864 128.776356 154.915237 63 51 109
-117.408013 224.241742 -176.012802 71 52 91
-117.408013 224.241742 -176.012802 71 52 91
-139.947987 -361.242238 312.121296 73 56 70
-139.947987 -361.242238 312.121296 73 56 70
-127.172351 54.556268 205.799866 28 23 52
-128.801727 -7.710139 213.874531 66 60 109
-126.143575 63.899758 204.935741 24 18 43
-133.318162 -240.327827 162.295055 39 35 71
-131.687522 -180.372683 170.052910 81 70 116
-136.948633 -334.120432 309.135628 60 47 63
-138.505578 -403.201596 319.095898 90 61 84
-138.773036 -431.781498 320.059872 78 56 75
-138.773036 -431.781498 320.059872 78 56 75
-129.050112 -157.391957 164.634323 34 21 45
-136.765528 -406.778304 315.235901 142 116 139
-128.683448 -176.497666 164.746761 42 28 62
-128.518057 -176.785783 166.293430 42 28 62
-130.145884 -256.000201 143.624210 78 67 123
-111.859298 259.126242 -189.826870 73 57 104
-111.859298 259.126242 -189.826870 73 57 104
-134.664536 -403.021304 312.107277 98 70 93
-134.664536 -403.021304 312.107277 98 70 93
-118.940115 127.857359 147.727013 63 54 111
-134.966087 -431.721989 313.307476 71 55 72
-113.275242 177.447268 -174.378872 93 76 127
-123.891163 -139.258055 161.525154 41 33 70
-123.891163 -139.258055 161.525154 41 33 70
-123.821187 -156.373111 152.422523 38 31 64
-124.820685 -192.447535 165.582561 86 70 123
-130.017710 -399.822728 305.640221 136 114 132
-112.993979 177.345236 96.731091 59 46 92
-112.993979 177.345236 96.731091 59 46 92
-120.995474 -129.698197 150.904274 41 33 74
-120.995474 -129.698197 150.904274 41 33 74
-108.478498 233.064850 -175.535774 73 53 88
-108.523655 219.293865 -174.455643 70 53 104
-108.523655 219.293865 -174.455643 70 53 104
-122.215748 -239.581601 140.052414 41 34 71
-109.380734 176.960691 -176.850224 87 76 126
-121.838522 -231.946460 128.102112 91 75 123
-126.736760 -381.770817 300.928879 139 120 135
-126.406336 -383.965079 301.464653 89 60 85
-107.995999 212.379440 -173.582649 75 58 109
-107.995999 212.379440 -173.582649 75 58 109
-118.485808 -132.665256 172.500801 41 33 74
-118.670225 -150.235263 152.483082 38 31 66
-125.457621 -395.453183 300.769615 76 61 82
-113.829851 27.311657 161.928082 33 27 58
-109.662747 171.244129 93.795776 55 38 75
-119.859362 -242.899600 130.445385 97 88 139
-117.219067 -157.729010 151.281357 36 28 59
-116.649175 -142.932061 147.817326 99 86 132
-118.718219 -249.549571 147.190380 37 27 63
-111.773229 -11.562666 158.385563 29 21 51
-117.106748 -226.735035 137.428761 22 19 45
-115.362406 -161.621181 147.489071 44 34 70
-110.420167 26.807032 158.852577 74 67 118
-104.153967 223.741778 -175.044632 77 58 113
-105.080163 182.788023 -172.179222 47 43 84
-116.694927 -306.559626 170.085335 107 89 142
-106.321418 88.873222 149.521351 34 21 67
-105.853581 106.744053 147.270393 33 24 64
-117.886901 -360.772649 291.512871 83 63 76
-117.886901 -360.772649 291.512871 83 63 76
-104.466963 148.306867 91.422939 54 42 70
-106.867552 43.805563 153.609657 37 27 63
-110.920751 -135.560540 144.118404 93 76 127
-110.989416 -160.297254 138.272190 101 85 132
-114.637446 -312.373058 168.224430 42 32 55
-106.872535 -45.944444 140.380669 85 70 108
-114.642406 -406.053845 291.761780 69 57 75
-101.895118 106.515964 142.968750 91 78 130
-108.300161 -163.267652 138.342094 34 22 52
-108.300161 -163.267652 138.342094 34 22 52
-107.436228 -131.311909 144.219780 29 24 56
-110.498452 -252.581445 147.158241 33 25 62
-107.721663 -147.774640 146.889973 27 22 54
-107.969785 -166.943506 134.431553 89 72 116
-98.169470 259.130200 -188.938522 70 58 100
-107.464027 -177.944962 135.755348 42 31 69
-111.500120 -364.541165 281.429768 73 54 73
-111.500120 -364.541165 281.429768 73 54 73
-110.341382 -316.065804 165.241718 39 31 54
-98.785412 124.748930 119.579124 59 47 99
-98.785412 124.748930 119.579124 59 47 99
-98.689353 177.254804 -175.091553 89 77 125
-109.439909 -362.204544 283.525562 129 110 127
-98.090100 106.942990 139.052391 35 24 56
-102.860069 -109.057967 143.170929 62 57 96
-100.131774 -12.507934 146.556377 29 25 54
-100.131774 -12.507934 146.556377 29 25 54
-95.605958 237.973817 -176.656151 63 46 83
-95.605958 237.973817 -176.656151 63 46 83
-100.534940 -46.318457 126.275921 81 68 106
-102.004540 -117.383150 141.030788 93 81 129
-94.643331 259.171876 -189.172363 65 57 104
-98.600566 -17.071719 144.988346 94 74 103
-104.759395 -309.638897 162.388706 28 27 77
-95.335710 177.034720 -175.829887 93 79 127
-94.498181 88.654532 137.337494 82 69 123
-95.668864 25.108709 143.842030 74 68 117
-95.439005 -13.777339 145.436287 27 25 55
-95.439005 -13.777339 145.436287 27 25 55
-93.130910 212.199529 -174.057388 69 51 104
-92.597175 232.950815 -174.953651 79 57 99
-99.613547 -180.150227 136.173916 39 29 71
-99.613547 -180.150227 136.173916 39 29 71
-91.412532 165.625139 76.457214 58 41 84
-91.412532 165.625139 76.457214 58 41 84
-92.739427 219.356688 -174.272346 78 58 111
-99.601853 -189.255766 136.194801 39 33 68
-95.630741 -50.452731 126.316547 26 25 51
-98.441422 -171.308879 142.873573 84 68 115
-96.715236 -130.042259 153.782272 25 23 59
-99.994361 -250.124899 131.582642 102 84 137
-99.994361 -250.124899 131.582642 102 84 137
-99.532413 -228.527109 117.636871 23 20 45
-91.013730 56.384831 135.813236 33 26 61
-90.128136 258.905514 -189.856720 69 58 104
-93.349957 -64.632080 149.877739 73 64 121
-97.759628 -255.379716 134.024811 37 30 57
-97.759628 -255.379716 134.024811 37 30 57
-99.604321 -406.791560 274.961853 75 62 86
-89.104629 252.073988 -181.682682 104 83 122
-89.104629 252.073988 -181.682682 104 83 122
-95.531106 -180.501977 131.989098 43 30 74
-94.779062 -170.443729 129.791260 84 71 117
-97.686100 -388.849417 270.374584 50 33 47
-97.686100 -388.849417 270.374584 50 33 47
-97.365189 -392.262379 268.855190 138 120 127
-96.966863 -302.243248 141.980076 107 81 105
-89.737141 176.972588 -175.582600 91 80 126
-84.253454 149.029108 66.833973 57 46 84
-93.116760 -371.684519 266.044998 78 52 65
-92.527127 -387.631170 270.696735 138 117 126
-86.702394 -51.285432 122.065163 27 24 56
-92.484009 -394.510094 269.268417 47 33 44
-85.734332 182.553204 -171.726513 56 51 90
-81.838882 144.746646 67.814922 185 140 127
-86.332953 -133.796922 148.490906 45 33 69
-83.426499 259.265646 -189.328480 73 61 111
-82.304275 61.019733 72.233868 187 181 182
-80.365133 141.495176 65.184116 102 59 62
-82.938492 223.739775 -174.867153 59 38 76
-86.020315 -172.851519 131.125164 84 71 117
-79.423785 85.399284 90.480423 76 94 105
-78.021538 182.124146 42.531872 115 99 130
-88.485408 -292.258874 101.780701 36 32 73
-85.890627 -250.846092 106.277084 99 83 137
-77.708960 70.392092 69.740200 157 169 175
-78.658831 -70.109127 137.001991 82 69 113
-75.050735 142.680033 58.984852 195 143 127
-79.182506 220.711979 -173.757267 66 48 89
-84.214056 -326.518384 138.369656 64 50 108
-78.246999 258.666595 -190.797043 70 60 106
-81.973350 -367.760483 254.938698 67 48 63
-78.046095 -83.872733 134.101295 47 36 69
-75.881398 56.159540 75.318718 191 203 205
-83.401549 -321.959559 136.089516 116 101 158
-74.675012 71.064778 65.060806 167 181 187
-74.675012 71.064778 65.060806 167 181 187
-74.175704 77.431615 73.023891 32 41 61
-72.858870 81.309786 88.133049 13 21 34
-75.987208 -109.419600 143.897438 43 33 63
-75.084639 -76.155189 137.669563 22 24 54
-75.084639 -76.155189 137.669563 22 24 54
-81.041884 -318.489114 138.150978 26 23 72
-73.425806 49.895360 78.346920 193 186 189
-73.378444 54.606175 73.360348 111 107 118
-76.410151 207.313391 -171.551895 70 50 85
-80.570614 -284.320680 95.715046 75 69 122
-75.706947 228.838643 -174.599171 125 104 153
-70.640016 148.222502 57.744884 53 41 77
-76.749790 176.841839 -175.546551 88 76 128
-70.814216 44.547581 93.325520 38 35 74
-72.807062 -129.017893 133.450127 40 30 60
-70.051396 56.320783 71.446705 88 85 94
-69.541276 65.390398 63.103104 145 153 160
-70.885468 -87.178550 128.785038 24 22 51
-69.307768 -21.029196 121.196461 103 114 142
-73.874021 -390.657441 251.067638 138 114 124
-68.822241 50.887888 72.093868 187 193 198
-73.361695 -183.022729 109.378242 40 32 69
-73.963666 -410.737101 254.683495 78 62 85
-68.862402 -42.103694 125.345707 18 16 38
-68.453372 -3.725291 101.278782 175 194 202
-72.978902 -397.103850 247.462273 121 103 126
-68.010640 2.998083 96.612072 181 200 208
-67.081821 64.124443 65.914822 104 101 110
-67.482042 5.767789 95.669365 197 213 219
-71.792233 -393.928400 247.959518 57 44 66
-66.589987 67.246642 64.419365 155 168 176
-66.109872 -23.398260 119.736576 115 131 148
-67.403913 -90.825079 125.248718 72 64 111
-65.615749 11.242096 97.193050 157 174 187
-64.859295 54.741254 69.771099 179 195 202
-69.653201 -201.810256 110.525131 46 35 73
-69.653201 -201.810256 110.525131 46 35 73
-69.102705 259.233554 -189.338684 63 51 99
-69.081318 -197.611395 111.541462 98 78 107
-64.366102 9.074822 94.597530 177 198 206
-68.237591 -408.889595 243.264008 76 58 81
-63.950300 -46.882287 116.714954 87 97 121
-68.018663 -187.303749 101.404095 88 71 122
-62.644815 -25.042672 120.380878 96 107 127
-61.502075 62.793186 69.013405 204 219 222
-61.502075 62.793186 69.013405 204 219 222
-61.237371 57.789012 68.266678 104 109 124
-65.633953 -393.143860 238.309765 69 53 77
-62.640953 -94.582228 121.331120 24 23 49
-60.830414 16.030528 89.658260 183 212 221
-66.067183 251.291450 -183.192921 103 79 119
-66.067183 251.291450 -183.192921 103 79 119
-58.328605 172.106715 41.770935 65 52 96
-58.328605 172.106715 41.770935 65 52 96
-60.796916 -46.998737 112.599468 125 144 159
-59.338796 68.050047 64.514542 120 112 123
-58.807743 53.660005 69.711781 188 193 202
-58.803952 18.860832 87.872791 137 163 177
-62.866473 -407.700411 238.767719 78 56 84
-62.866473 -407.700411 238.767719 78 56 84
-58.443332 -6.557689 105.263901 29 51 86
-64.273119 258.334812 -191.693306 73 59 101
-58.006334 57.365008 69.157410 166 178 188
-58.006334 57.365008 69.157410 166 178 188
-59.767926 -116.478101 128.131771 50 40 70
-64.404869 228.733262 -178.732777 67 49 86
-59.821713 -101.267067 117.438793 33 27 58
-60.466075 -140.405289 110.047531 107 89 136
-60.466075 -140.405289 110.047531 107 89 136
-55.927658 143.370434 45.044422 60 43 77
-56.395316 80.464896 61.227226 36 37 57
-64.216101 176.014908 -179.067802 88 78 125
-55.612636 1.220170 108.552837 91 125 148
-60.050762 -195.149890 104.169178 38 32 67
-60.050762 -195.149890 104.169178 38 32 67
-55.517566 16.568758 88.076973 68 74 93
-54.966354 65.332057 69.579601 99 110 130
-61.597455 251.693281 -181.975269 104 85 128
-54.625988 73.001917 63.530827 52 43 56
-54.188025 70.188703 65.464020 146 167 175
-58.558798 -190.253703 104.445076 86 73 125
-60.808957 -245.628516 70.497894 36 33 65
-55.634773 -127.744702 117.263794 29 30 64
-53.278780 19.745664 85.744095 140 164 176
-52.092040 16.299319 84.162426 59 67 90
-52.092040 16.299319 84.162426 59 67 90
-53.562403 -97.846750 112.034416 23 22 48
-49.496126 35.420077 98.797512 68 95 116
-49.867713 142.007180 35.162830 58 44 72
-48.978019 38.007402 99.772453 43 53 83
-49.301767 55.443849 72.869301 144 156 168
-49.404156 12.245899 91.838264 139 149 159
-49.404156 12.245899 91.838264 139 149 159
-57.016981 251.376017 -182.602692 105 85 130
-57.016981 251.376017 -182.602692 105 85 130
-48.859644 19.313791 86.858559 140 164 176
-48.443508 69.629546 69.521141 85 92 107
-47.557008 41.981032 97.952461 134 167 182
-47.900379 6.573856 106.843376 9 24 43
-48.097897 78.976371 62.584782 137 117 130
-52.563000 -190.446011 94.571400 86 71 122
-45.986450 30.408182 103.821373 16 33 60
-48.874402 -102.554683 107.118511 30 25 54
-45.814514 35.094699 98.753929 82 106 128
-49.668014 -394.025389 222.560787 64 52 72
-45.199239 37.025871 99.527264 51 70 97
-45.442843 69.612827 70.109749 148 162 174
-50.782657 -204.246632 91.909981 50 38 74
-50.782657 -204.246632 91.909981 50 38 74
-50.782657 -204.246632 91.909981 50 38 74
-45.120192 163.678011 27.068901 58 45 83
-50.016582 -186.037437 87.709427 41 34 71
-43.772662 42.309787 97.907448 105 131 148
-45.060492 10.605572 88.304520 167 189 200
-44.187653 68.143781 73.420238 89 90 110
-44.187653 68.143781 73.420238 89 90 110
-52.131999 -237.702028 65.950108 28 25 50
-44.688654 -29.464356 104.728889 30 33 61
-49.599159 -161.052565 70.322990 31 30 62
-49.599159 -161.052565 70.322990 31 30 62
-44.057429 74.382754 62.981606 76 74 96
-43.183839 16.518490 85.633850 127 145 162
-41.781771 33.925759 98.145103 82 102 119
-41.551518 36.139747 98.790455 60 78 101
-52.118099 251.625618 -181.823254 102 83 126
-52.118099 251.625618 -181.823254 102 83 126
-44.361210 -96.500102 102.435398 18 19 47
-49.465382 -325.250069 111.153889 113 94 149
-43.387258 -53.356657 97.563171 18 16 35
-49.549770 -244.029538 71.498966 83 71 119
-49.165416 -256.641714 82.496166 91 83 136
-49.165416 -256.641714 82.496166 91 83 136
-42.343092 141.554340 28.839111 55 40 67
-39.311886 37.447982 101.487541 116 142 154
-40.881348 71.149477 60.044479 142 158 170
-40.514016 15.348542 86.814117 145 167 185
-47.314024 -321.696345 110.920715 30 24 71
-39.172375 35.106345 99.755859 50 60 84
-51.892376 176.279422 -177.518082 90 76 124
-48.299336 -241.540972 56.726551 84 72 122
-40.197003 76.474407 60.801506 79 75 100
-40.160143 3.871787 91.250706 170 197 207
-46.391857 -325.927297 105.963802 63 52 108
-39.225447 78.329446 57.227135 137 139 149
-38.893151 9.798599 86.231041 52 65 91
-37.583876 31.551216 98.360348 75 94 115
-42.235649 -397.656266 196.628094 145 146 156
-38.033295 117.315587 54.611492 66 53 109
-38.033295 117.315587 54.611492 66 53 109
-44.126773 -201.832429 83.357334 95 79 132
-38.384604 12.554625 86.694241 108 122 144
-40.219843 -93.227140 97.829151 73 68 113
-44.858694 -334.672896 114.659691 61 49 107
-37.796235 2.213015 92.206764 112 124 142
-41.312194 -399.121348 191.730022 207 203 202
-40.371466 -386.994640 194.526672 134 151 170
-40.584612 -396.774165 193.261909 69 59 76
-39.599919 -105.210189 90.124702 85 72 126
-36.824131 70.516654 56.124687 161 170 180
-38.345790 -98.249320 96.599674 34 25 52
-35.674274 9.980788 88.427162 119 142 158
-35.674274 9.980788 88.427162 119 142 158
-35.700691 3.814759 88.476467 132 155 170
-36.100292 159.622129 20.606995 58 43 74
-34.325719 28.908188 99.452591 52 72 89
-35.686004 145.996793 20.928860 50 47 56
-39.870536 -197.690836 84.327412 36 32 68
-34.962702 76.009556 55.092525 196 208 210
-45.928669 254.635008 -185.605717 144 120 168
-37.922132 -400.076929 190.284729 204 199 201
-34.652972 79.196032 53.629303 25 21 40
-33.778250 6.572196 93.747520 130 153 168
-36.353886 -395.130602 188.571835 186 180 185
-36.000311 -391.707221 187.680626 151 118 125
-33.484304 -370.663849 201.052380 57 38 55
-31.587100 116.415115 46.065712 65 52 108
-31.587100 116.415115 46.065712 65 52 108
-36.968446 -187.896315 76.879597 44 33 71
-36.968446 -187.896315 76.879597 44 33 71
-37.043631 -202.376262 78.455448 95 78 129
-34.589148 -402.363650 187.863731 187 167 166
-34.675026 -53.814057 58.507442 83 69 111
-44.340789 176.097675 -175.302601 85 73 121
-44.340789 176.097675 -175.302601 85 73 121
-31.176949 78.449794 53.509998 119 124 139
-30.562043 74.785735 55.013180 164 173 182
-35.456002 -159.222165 62.330723 85 74 107
-32.381558 -377.646176 181.550694 125 150 166
-43.189466 172.105535 -173.795700 38 36 66
-34.665883 -173.953298 63.072205 87 71 124
-40.600371 259.943708 -181.760502 69 57 93
-34.035385 -180.073742 64.101124 44 33 79
-28.175294 116.009983 43.171120 62 53 110
-28.175294 116.009983 43.171120 62 53 110
-30.104625 -89.342914 87.417126 30 22 52
-33.761883 -309.499518 107.548523 108 89 144
-27.865231 86.297455 53.353691 75 69 124
-33.139801 -187.945131 70.266151 40 33 70
-29.883027 -384.557835 180.011082 123 117 82
-28.626275 143.891367 13.203239 42 32 48
-26.393890 82.296481 61.533833 112 110 122
-28.381288 -74.914155 82.975483 68 62 103
-25.834858 84.324332 58.674908 39 39 79
-26.016486 113.551327 45.011616 125 109 162
-26.144350 118.625446 40.726471 124 108 162
-35.707593 -252.717058 28.437901 40 29 55
-38.282299 195.294281 -159.577942 62 45 82
-25.030732 78.271499 58.882904 134 153 168
-26.740277 -377.737252 177.329922 132 158 172
-24.307072 86.050072 52.700806 88 82 137
-24.068463 116.412183 45.591927 55 42 104
-29.515827 -168.095175 59.993172 31 22 49
-25.193536 -396.080891 175.682640 46 51 50
-30.746973 -258.726422 51.270962 40 29 55
-27.519023 -305.266920 102.412796 111 93 146
-26.488686 -143.986133 62.283421 98 82 130
-34.464717 206.915101 -155.919361 61 43 82
-27.741289 -170.781258 53.036022 51 38 82
-21.112061 90.305474 56.392860 33 31 73
-26.563215 -152.719919 55.849075 96 84 136
-28.366852 -331.342951 86.161518 133 115 162
-23.087883 -396.876303 173.437119 50 34 17
-24.248862 -54.864720 48.605251 92 73 112
-22.130132 146.116599 6.034470 113 91 139
-61.788154 83.163919 -486.266088 109 89 136
-21.343935 149.906834 7.041550 55 42 68
-24.342942 -140.778271 57.155132 42 34 75
-25.342000 -295.338360 90.436077 52 38 80
-24.957395 -295.834056 92.218304 52 38 80
-19.024014 36.401131 64.445591 87 76 132
-31.799185 179.129883 -156.470490 85 75 121
-31.799185 179.129883 -156.470490 85 75 121
-23.580945 -170.251743 47.862625 99 86 138
-22.800803 -162.082259 49.240589 87 73 121
-25.781798 -250.552408 37.547112 34 30 65
-23.798859 -318.018357 77.054787 111 96 147
-23.798859 -318.018357 77.054787 111 96 147
-22.045851 -289.949171 89.361095 64 46 93
-22.045851 -289.949171 89.361095 64 46 93
-23.076236 -316.309801 83.818436 42 37 98
-18.352282 145.643242 3.662491 50 35 66
-22.218990 -203.910462 59.564781 98 81 132
-18.014729 -391.301910 165.868378 121 105 62
-21.830094 -188.568643 54.311180 44 32 74
-21.551192 -197.939841 54.329967 35 31 66
-22.716665 -321.418802 73.185062 49 40 67
-22.770309 -326.835219 73.927689 115 99 147
-15.845799 -374.502531 170.147133 25 25 37
-20.951593 -168.233959 47.102928 96 81 132
-15.534878 -378.222124 167.799091 115 138 154
-18.652213 -96.890394 47.171211 33 32 66
-15.221393 -386.535541 162.857819 122 109 71
-15.561271 142.388698 2.133560 48 33 64
-18.992209 -170.621911 48.093605 39 27 69
-21.050560 -247.264425 42.182064 74 65 116
-11.998606 16.207384 58.635521 76 70 123
-10.916764 79.025920 52.101612 86 77 133
-16.655362 -292.998473 83.224678 52 46 105
-16.655362 -292.998473 83.224678 52 46 105
-17.887580 -208.873979 44.739532 83 73 119
-18.148065 -319.816224 71.543407 110 96 150
-16.338730 -153.338710 45.268917 104 91 137
-11.587483 -395.896260 161.955547 135 135 141
-14.537716 -143.067793 56.198120 41 32 75
-16.340208 -197.873107 46.205997 33 31 61
-16.426623 -307.162205 71.630955 44 41 97
-9.459770 -382.580820 163.407421 122 139 160
-9.053707 114.495083 31.488514 54 46 99
-9.053707 114.495083 31.488514 54 46 99
-11.163867 142.338141 -0.456905 55 40 67
-8.445758 60.622319 51.718807 52 40 70
-14.422989 -204.546062 54.234314 102 86 133
-7.982397 77.437576 49.175739 29 21 58
-9.392560 -392.880503 159.463692 138 147 156
-9.222788 -388.145558 157.468033 109 131 143
-12.426227 -189.606003 46.132374 41 34 71
-11.314404 -288.232986 78.052521 109 93 147
-11.314404 -288.232986 78.052521 109 93 147
-14.848185 -251.095430 23.226929 32 29 61
-11.816221 -170.948414 34.914589 103 84 135
-11.220425 -192.816249 37.976551 81 68 114
-11.220425 -192.816249 37.976551 81 68 114
-4.221970 72.168197 43.978119 116 103 155
-4.836577 12.261329 51.772785 47 42 87
-3.817189 75.511714 45.787907 54 45 101
-4.939717 9.277298 49.998474 111 100 150
-5.010498 -392.228047 151.387501 186 206 211
-3.389394 95.792361 42.544270 89 76 130
-8.744925 -142.469565 41.813374 34 27 64
-8.744925 -142.469565 41.813374 34 27 64
-4.235750 -388.329450 150.640106 25 25 31
-9.519154 -168.141440 35.507774 44 32 74
-9.327835 -173.776380 36.759281 36 22 56
-9.355098 -177.685706 34.215832 110 90 135
-8.767188 -165.606789 36.923695 110 96 144
-6.868398 -135.407261 42.532921 41 36 81
-8.006972 -182.586960 40.540600 40 31 74
-15.102220 227.420672 -139.418125 57 42 80
-2.105081 -385.656277 150.639248 130 147 168
-1.152021 114.679655 33.400440 58 49 106
-3.344619 166.545459 -12.777615 66 50 97
0.646681 94.833847 38.360977 32 26 61
-3.042632 140.613254 -11.457253 111 93 140
-0.588357 -16.679730 48.634148 40 30 60
0.996017 76.257130 39.982033 28 18 60
1.646990 59.680261 43.513680 37 29 66
0.073165 -26.654286 45.580864 94 78 112
0.073165 -26.654286 45.580864 94 78 112
2.458203 -383.919875 155.046749 38 30 40
-7.254046 -251.772777 19.002056 32 30 59
2.482724 114.198431 27.865124 60 51 107
2.482724 114.198431 27.865124 60 51 107
-0.191963 137.585112 -11.094475 47 38 58
-11.574769 180.970236 -137.494469 82 70 120
3.870606 77.295014 37.042141 93 84 135
4.668367 -390.792052 152.498245 46 38 48
-0.103790 -168.112973 48.075294 31 19 47
1.843697 -74.385039 40.610027 87 74 128
1.888686 -141.238026 51.711082 34 26 67
-8.133602 223.464378 -133.816528 82 60 109
-2.791840 -246.043936 25.419521 66 58 105
-2.791840 -246.043936 25.419521 66 58 105
6.873810 75.555279 34.653950 30 21 64
6.044513 12.820689 40.974808 27 22 61
-7.933110 185.342272 -134.321117 36 35 69
6.429309 113.236865 17.898083 54 47 104
3.257877 -61.637620 26.732349 26 23 55
-5.942595 242.228540 -131.799603 70 49 87
9.273571 -377.601305 156.373405 112 95 122
4.423088 -162.044624 47.940445 80 70 116
-4.813004 228.599032 -129.778004 75 53 105
4.734266 155.904170 -23.077679 44 32 60
4.381365 -197.881762 52.142429 21 20 54
2.458370 -290.477554 53.555965 114 103 153
-4.976243 181.209239 -133.027744 81 68 114
-4.976243 181.209239 -133.027744 81 68 114
6.216627 -166.890649 48.341179 29 22 55
13.815886 -376.307956 157.973766 64 41 63
8.745980 132.088574 -2.354527 130 108 156
10.973632 109.909495 12.893391 128 110 163
-2.484840 274.527153 -148.051262 80 65 86
11.325842 115.227970 9.507465 120 106 160
6.961489 -284.054343 55.323792 92 85 136
0.000000 213.505705 -123.695183 78 57 106
0.000000 213.505705 -123.695183 78 57 106
12.961000 112.946471 14.206028 57 50 111
8.605886 -280.749670 58.943176 22 17 38
9.461790 158.213433 -28.001976 42 33 59
9.461790 158.213433 -28.001976 42 33 59
16.811818 -375.234715 150.590515 66 47 64
10.215765 -62.355540 21.442890 32 34 69
1.519203 198.194369 -120.646191 63 46 83
10.927290 136.610588 -26.468754 48 41 56
8.482522 -251.486412 24.024582 29 27 49
13.292420 164.008792 -32.000923 57 47 77
13.292420 164.008792 -32.000923 57 47 77
14.641875 -180.483309 46.815109 73 61 109
21.828198 -372.362605 147.754860 142 117 137
10.093820 -245.321647 19.129944 67 57 99
14.101475 159.962448 -30.594540 104 89 140
14.348239 138.737269 -29.531574 102 86 134
16.056383 157.345327 -32.591057 48 35 67
8.459753 188.327523 -112.503052 34 34 70
17.226428 -281.430403 50.456333 113 94 151
20.743394 -181.122354 40.034676 77 67 114
22.544640 -171.385697 47.082138 19 16 25
26.891935 128.367373 10.154819 62 53 73
24.385899 133.395513 -18.481350 107 89 136
23.345006 -200.603835 36.185837 32 29 61
35.297078 -378.969757 131.240845 68 55 77
34.155172 114.691480 30.406570 57 48 105
29.801852 -202.269737 35.582161 33 29 65
29.801852 -202.269737 35.582161 33 29 65
23.097187 200.966569 -99.249554 48 37 69
28.856027 140.692052 -45.514107 44 35 62
36.686033 -68.690441 49.283123 37 29 59
39.929312 -385.874645 128.097916 139 117 135
31.344527 -192.172781 27.986336 40 32 69
31.765801 -185.604695 30.004215 44 33 73
38.267264 24.448469 41.505814 36 28 59
40.781331 -377.249733 129.020882 144 118 131
39.055994 53.405827 38.213921 31 24 59
25.096297 213.667306 -98.329639 55 38 75
38.475475 -60.162625 49.755955 32 29 61
24.015874 183.698245 -106.295204 78 68 115
40.501538 52.002602 33.436203 51 40 73
41.114226 84.571495 30.451107 37 32 61
41.301486 49.102711 34.464550 30 22 63
41.301486 49.102711 34.464550 30 22 63
32.207304 140.763661 -48.839664 102 85 136
44.088987 -381.548778 125.300694 130 111 130
44.624153 -339.508025 120.374870 90 68 92
44.624153 -339.508025 120.374870 90 68 92
44.624153 -339.508025 120.374870 90 68 92
42.091969 19.717770 39.564133 38 27 60
44.970292 -325.967304 118.289852 68 41 67
33.361441 144.808086 -47.336102 50 43 58
42.436057 -78.465346 51.272774 44 39 78
38.721311 -210.865370 41.359520 46 31 75
39.090645 -185.429815 37.707996 43 33 79
39.525202 -163.685755 19.493580 102 86 140
47.713768 15.016053 32.278347 40 32 69
33.036083 266.620763 -111.858845 70 58 88
34.963542 202.091917 -88.837910 37 30 65
35.628760 218.586644 -89.949703 47 36 74
36.547011 259.495624 -99.599743 85 69 103
19.446790 280.200108 -233.060741 153 134 127
55.118343 -381.369535 108.751678 61 52 79
50.744653 -209.367744 51.726723 44 31 75
53.762344 85.687711 19.809818 40 33 70
56.895408 -322.018567 102.211761 73 61 91
56.895408 -322.018567 102.211761 73 61 91
57.362238 -359.433261 109.417534 93 74 95
57.362238 -359.433261 109.417534 93 74 95
39.759451 266.508945 -107.208633 58 45 69
53.182051 111.037346 0.311184 66 53 115
53.182051 111.037346 0.311184 66 53 115
52.602145 41.224461 0.951290 101 90 140
55.574608 2.152567 26.596069 35 27 57
43.323967 263.015326 -101.599979 72 57 85
53.819248 39.534488 0.054932 58 44 92
53.819248 39.534488 0.054932 58 44 92
57.626757 70.805921 15.859890 43 33 63
47.310534 -170.877842 -15.931129 102 91 141
45.745179 261.762055 -95.932388 128 109 148
52.280766 -246.870414 22.725487 81 70 108
55.241793 32.376560 -0.018024 124 104 157
55.557775 40.734401 -2.182293 104 94 141
57.783175 -67.876897 24.548054 34 29 61
48.999992 154.015108 -67.179203 66 49 92
56.655362 43.380814 -1.556206 34 29 74
49.964210 -169.063107 -14.869404 33 29 58
45.465645 276.872548 -112.625599 50 42 53
64.244731 -382.101337 105.221653 75 51 81
60.875356 74.629500 12.190151 40 29 67
49.550238 260.446032 -88.273239 57 49 66
49.550238 260.446032 -88.273239 57 49 66
47.984752 171.507534 -89.729404 60 53 90
52.353492 131.579944 -63.634109 52 36 70
52.353492 131.579944 -63.634109 52 36 70
51.853901 159.398314 -71.504116 62 53 93
51.853901 159.398314 -71.504116 62 53 93
68.054146 -381.882063 102.642918 70 49 71
64.327031 -2.527098 16.784191 45 41 90
63.046743 -45.943401 14.958954 33 30 76
63.046743 -45.943401 14.958954 33 30 76
64.321613 -31.296430 20.289803 33 32 72
64.321613 -31.296430 20.289803 33 32 72
69.461414 -378.143875 98.374176 143 119 137
69.983025 -324.879304 93.935108 78 62 96
55.728748 -178.448550 -15.877151 95 84 140
64.757039 -7.205600 15.317440 111 98 144
52.653742 262.660798 -98.986530 125 105 148
52.709648 175.894686 -91.829967 84 72 124
65.556602 -49.974594 18.117523 83 71 123
54.743496 259.894785 -94.753647 72 63 89
65.078986 -247.158066 36.526966 82 69 115
72.511841 -287.558786 86.823654 80 55 81
50.438631 289.431246 -130.922794 128 110 103
74.041219 -284.929935 82.198238 138 115 137
60.891700 -183.034150 -12.882710 41 37 96
56.520215 266.415008 -106.260681 43 34 60
69.437781 24.265265 3.204918 105 89 143
70.281018 0.688656 11.174393 36 31 60
70.361182 -18.097106 14.000320 34 24 60
57.524738 282.471713 -108.418560 44 40 46
59.593207 130.314931 -76.172733 42 35 62
71.721660 73.409136 3.474045 32 24 64
59.918544 149.663099 -78.656483 40 35 64
77.016658 -300.426546 82.595730 84 69 100
71.051201 -251.659838 38.557243 30 27 53
77.496452 -325.941078 85.862827 85 65 94
60.339892 168.614908 -86.543560 135 120 158
61.302957 123.482438 -76.560783 138 121 154
59.682453 185.647210 -95.010853 62 60 90
72.631852 25.444891 2.096462 52 40 82
72.631852 25.444891 2.096462 52 40 82
73.646629 -23.653839 11.597824 37 30 67
72.798759 29.931865 -0.725746 104 88 142
60.194191 180.341109 -96.752834 25 26 47
73.954993 50.153273 0.514221 22 17 44
61.031452 258.759531 -103.127670 83 67 98
75.226850 68.282618 1.406670 35 28 65
61.291599 261.910256 -107.130718 126 105 150
75.353312 0.011975 6.483746 39 30 57
61.351648 265.881642 -111.709023 47 39 70
75.389244 38.906818 -2.183247 83 75 128
77.533251 -246.061794 47.657108 74 65 115
76.423878 41.971429 -1.678562 26 20 45
76.246671 33.165092 -1.615143 44 32 68
64.874591 130.775043 -82.600784 58 51 72
83.941912 -356.246249 84.987164 76 60 83
65.556239 259.215482 -103.744125 89 70 103
65.556239 259.215482 -103.744125 89 70 103
86.530008 -353.001539 81.168747 145 123 142
87.333186 -288.255183 73.642921 90 69 94
68.911752 129.327437 -85.085297 46 35 67
69.576339 158.272716 -90.097904 47 36 69
69.576339 158.272716 -90.097904 47 36 69
69.819893 236.711510 -101.039600 46 35 61
69.986102 226.990660 -100.468063 27 26 42
71.122070 131.289407 -88.597202 105 90 134
83.866959 3.338954 -4.692745 36 29 56
90.544841 -265.245620 63.722992 105 84 106
91.259296 -286.862890 65.302944 76 57 82
72.420251 122.122701 -89.556599 136 115 147
72.694254 229.700454 -104.492474 36 32 57
95.048650 -357.187954 71.607876 70 55 82
77.163160 128.749796 -93.668747 108 90 137
90.679476 43.444439 -12.798977 30 23 56
88.324234 60.396972 -32.248688 98 86 138
79.200082 125.232788 -91.224957 106 88 135
99.770014 -226.353113 52.478886 138 119 136
94.875884 -140.346459 16.277885 30 32 73
93.386430 83.978840 -20.766449 43 35 66
93.386430 83.978840 -20.766449 43 35 66
100.168683 -358.187691 65.414429 83 63 92
101.331151 -229.110567 50.647736 66 53 75
79.829048 257.417067 -119.414330 85 71 107
79.829048 257.417067 -119.414330 85 71 107
83.012195 117.018231 -86.841106 69 58 90
102.642180 -325.704638 61.255646 144 119 133
81.569238 243.335565 -114.242268 52 43 69
81.569238 243.335565 -114.242268 52 43 69
81.501895 198.634430 -110.300827 42 31 63
97.916114 42.825141 -17.998791 38 31 58
98.685034 68.659957 -17.453289 37 33 68
82.477180 260.739120 -122.530556 140 117 162
84.099331 134.384473 -102.355099 41 35 66
105.292906 -253.208057 48.297691 89 71 94
81.204895 262.734517 -134.442806 51 43 84
129.225940 202.042838 108.771133 135 120 158
108.474939 -230.182854 42.767048 84 69 101
101.787405 42.314383 -23.562527 35 30 59
88.613595 138.647338 -102.541924 46 40 59
110.406305 -254.168478 44.942188 84 68 92
87.202264 256.655129 -126.201534 94 73 105
88.280243 242.358287 -119.993782 49 40 80
86.219480 164.116772 -123.361588 142 122 169
89.026999 198.100551 -115.467548 41 32 65
111.394079 -231.326882 40.100861 82 64 93
111.475281 -307.674900 48.344040 62 40 58
111.264095 -325.327531 48.049545 100 76 88
104.817311 82.944932 -31.676674 33 26 59
89.904193 160.428640 -113.493919 107 91 144
112.593034 -199.153606 34.302711 73 61 89
88.014972 253.947004 -134.579563 113 93 146
88.014972 253.947004 -134.579563 113 93 146
95.145133 118.968459 -86.522484 58 56 86
113.431808 -325.704280 48.318481 76 53 68
91.401351 133.601578 -108.506393 43 32 64
89.181186 177.264186 -124.523735 31 33 63
114.989677 -253.956715 38.740540 133 113 132
115.806815 -250.269548 38.653564 71 54 75
115.806815 -250.269548 38.653564 71 54 75
108.226569 78.259953 -33.502102 33 25 65
102.587032 -13.800373 -55.423069 106 88 135
117.454699 -236.422459 31.739807 142 128 152
118.562788 -363.689891 49.046612 73 60 82
92.946572 263.340291 -137.726307 66 56 102
94.215072 256.346282 -131.678391 102 79 123
102.239062 105.386367 -79.697704 121 105 159
118.502706 -290.344969 37.446213 89 66 94
119.129494 -253.462545 36.370087 75 56 73
118.893552 -232.220665 32.222843 80 65 93
120.686761 -200.099675 27.950382 88 72 103
96.749178 228.037222 -127.475452 46 36 72
120.015985 -249.754898 29.381943 121 106 120
104.700963 102.493998 -82.424259 58 53 104
104.700963 102.493998 -82.424259 58 53 104
122.382018 -248.236052 33.293819 65 47 64
122.345638 -293.891136 37.389469 81 64 97
106.344788 99.588635 -81.429577 123 106 163
123.495048 -277.651612 31.747437 82 64 93
123.599014 -178.119460 22.000504 77 67 103
98.885256 129.340275 -123.634148 49 43 62
99.276584 129.481526 -122.688770 49 43 62
124.697927 -311.803309 33.751488 78 70 101
124.697927 -311.803309 33.751488 78 70 101
107.876807 102.174976 -85.137749 57 51 98
107.876807 102.174976 -85.137749 57 51 98
125.693929 -361.850230 39.771461 79 57 85
108.678985 99.218079 -85.653687 124 108 161
100.866438 255.222424 -139.703178 92 72 101
127.175811 -289.367095 29.526424 87 60 76
127.361163 -330.450932 33.672523 88 71 98
128.612572 -259.801165 25.886726 78 60 77
105.092593 164.799222 -125.115585 131 115 162
113.072929 102.059331 -85.010910 59 49 95
113.072929 102.059331 -85.010910 59 49 95
129.865628 -269.063751 25.448990 76 59 73
109.400193 -7.431505 -90.974426 83 70 124
116.206524 73.188116 -71.664143 123 103 148
131.000021 -177.653579 16.389275 139 122 149
110.571317 -12.483571 -92.667484 28 20 60
106.432292 128.699776 -124.878025 107 89 136
131.053951 -327.680174 26.553059 139 123 141
107.529549 125.315734 -121.796608 46 34 64
107.538156 153.948566 -125.691223 56 46 88
132.609171 -236.956231 20.926476 84 71 103
117.331481 80.897131 -77.413177 38 29 56
105.789097 254.534157 -144.943237 101 81 124
132.667449 -331.893460 28.521824 95 77 106
132.300821 -157.251123 9.728336 89 75 111
112.064350 -28.104360 -91.245270 104 88 142
133.598423 -357.174293 30.617142 85 57 77
133.527854 -348.994175 29.419136 101 75 93
133.527854 -348.994175 29.419136 101 75 93
118.687576 75.532981 -76.026535 50 39 65
119.874835 71.170332 -72.050095 72 58 82
133.729652 -202.791063 13.736820 73 58 89
119.205320 83.177205 -76.896858 105 86 119
119.205320 83.177205 -76.896858 105 86 119
135.217658 -362.187783 29.141140 93 68 96
135.452238 -61.173330 1.369762 60 46 70
119.471264 80.491336 -81.788921 40 29 62
135.577786 -96.983448 2.525330 81 66 94
110.563089 147.053917 -130.025196 46 39 74
123.582706 9.376378 -61.977863 23 23 37
108.211422 180.720171 -145.778275 47 47 87
136.683354 -360.250513 26.987743 157 137 150
121.718302 77.966609 -78.208160 108 92 133
137.203053 -215.488879 14.318371 73 58 89
110.761273 186.149093 -138.212967 24 23 39
110.761273 186.149093 -138.212967 24 23 39
137.360334 -233.204833 14.244652 145 125 144
109.523894 230.292090 -148.002625 48 40 57
137.580174 -256.040994 17.100716 80 65 96
137.166837 -212.575237 9.092140 135 116 133
137.994641 -176.380006 9.210968 70 64 95
137.668073 -61.029176 -5.344677 63 45 68
137.668073 -61.029176 -5.344677 63 45 68
138.438910 -291.559211 17.424774 141 122 139
110.977690 253.875908 -150.543594 100 80 127
138.869709 -180.023531 6.140137 130 114 138
110.158907 161.585291 -147.209549 126 113 159
139.123732 -131.855647 2.013683 74 56 85
140.042305 -332.841078 22.954369 92 69 97
139.948505 -238.776151 13.597107 60 55 84
113.963622 143.433639 -131.542110 42 32 62
139.831269 -214.823643 10.303879 62 44 67
140.184098 -294.376246 17.729282 77 55 79
122.380665 101.027324 -93.971443 66 56 109
122.380665 101.027324 -93.971443 66 56 109
112.504840 257.773217 -150.617123 145 122 174
124.078628 80.033799 -86.369133 35 26 52
124.762607 74.642279 -84.848404 42 35 56
141.124523 -291.293470 13.860035 135 116 133
125.582030 26.063866 -80.340290 24 23 49
142.475283 -337.206475 19.449520 66 58 81
115.864059 124.715050 -133.668041 104 87 131
116.241366 127.228924 -135.044289 44 36 66
123.542753 99.903991 -104.050922 69 57 109
123.542753 99.903991 -104.050922 69 57 109
127.020788 84.405943 -89.602280 35 34 68
143.994153 -238.757006 6.081581 76 70 93
143.955278 -208.125106 2.779579 75 53 71
144.756740 -166.464952 -1.730156 146 125 134
144.756740 -166.464952 -1.730156 146 125 134
116.161579 260.383543 -163.107109 62 53 96
146.886134 -215.820471 3.906155 78 59 84
129.168057 -28.740562 -85.637474 48 37 83
148.088443 -331.568972 17.515659 58 45 61
147.852325 -296.048752 10.839272 71 51 74
147.735161 -199.898354 -2.333164 79 65 89
148.390567 -269.004790 4.829693 82 65 92
149.179524 -241.413967 3.182316 61 52 78
149.179524 -241.413967 3.182316 61 52 78
150.888765 -296.464316 5.995655 79 63 87
119.301420 253.762015 -170.419884 152 126 172
136.109710 18.628974 -86.049747 33 31 67
131.500691 102.186330 -112.560177 132 114 161
153.178120 -332.792751 9.297657 56 40 58
154.118168 -173.932723 -8.211899 71 62 89
154.118168 -173.932723 -8.211899 71 62 89
129.290995 142.635664 -133.866215 34 28 63
154.825783 -299.279515 1.875401 86 74 104
154.587901 -97.429983 -16.768932 76 62 90
154.587901 -97.429983 -16.768932 76 62 90
155.672550 -294.845716 0.588608 147 124 139
155.738181 -238.971845 -4.426956 70 57 79
132.886165 146.865364 -130.555248 47 42 69
157.100564 -281.964985 -2.458191 89 74 101
157.514441 -351.578180 4.880428 134 116 129
126.819131 280.813082 -168.253899 65 55 61
158.241844 -344.033257 3.543568 58 37 52
134.862822 124.684199 -126.371002 36 29 42
157.925028 -64.852408 -23.519516 82 66 107
158.816087 -237.767831 -10.734367 71 55 86
160.176432 -65.777890 -25.748062 73 62 102
161.738122 -132.285825 -16.010284 135 116 135
162.868553 -333.791176 -2.457619 87 72 103
162.072176 -131.442288 -22.402096 137 120 133
162.074012 -129.012314 -24.011993 81 60 82
162.683564 -63.360003 -31.414700 142 123 148
163.931733 -203.776494 -16.598320 80 68 88
165.171999 -352.274171 -4.010296 86 67 94
164.781386 -66.646937 -30.018330 56 50 81
166.493106 -128.863875 -24.776363 139 117 141
166.241670 -133.733479 -27.046394 66 52 70
167.899901 -334.376494 -7.963371 77 62 90
167.213625 -167.343727 -24.477863 78 61 94
168.020421 -99.226443 -28.917599 77 63 87
168.470335 -184.925429 -22.129536 74 61 99
169.678831 -332.660667 -10.367393 137 117 136
170.457911 -205.156342 -24.457264 81 67 91
170.661366 -66.284225 -34.422779 65 54 80
172.940713 -334.728185 -12.308788 78 57 90
174.207407 -332.688180 -11.402702 142 117 131
174.944866 -334.602586 -15.224075 75 57 86
174.785668 -135.961417 -32.742119 81 60 75
174.723649 -132.706729 -34.181309 147 125 137
177.369684 -333.677927 -16.139030 139 117 135
178.078586 -335.949174 -16.560078 75 58 85
176.851368 -68.671677 -43.587780 69 57 85
178.169560 -163.888267 -35.432625 87 65 89
178.458959 -139.945797 -37.335491 143 120 134
177.972364 -65.651719 -45.957661 146 124 148
169.385225 146.351429 -94.404316 47 37 73
169.385225 146.351429 -94.404316 47 37 73
180.276299 -242.332045 -29.784870 66 49 76
172.067970 150.110706 -91.939354 56 41 79
181.998968 -219.543187 -32.987213 79 65 89
179.557574 92.553588 -64.166737 67 50 77
183.696032 -336.907116 -22.366428 81 63 92
183.774656 -333.797518 -24.092770 138 115 130
184.462237 -331.005613 -22.012997 69 47 71
183.037126 -211.984245 -36.694336 82 66 89
184.045386 -67.006645 -44.120789 145 121 139
183.001357 -100.919846 -45.783997 54 46 69
184.458184 -66.474883 -51.605892 156 134 153
184.110951 -33.818746 -55.415821 73 58 86
184.110951 -33.818746 -55.415821 73 58 86
185.660499 -98.326079 -48.232269 133 111 129
187.469149 -336.671153 -26.503849 82 60 89
187.469149 -336.671153 -26.503849 82 60 89
186.561811 -140.272216 -45.794868 70 57 79
188.351309 -304.468242 -28.640556 137 116 131
187.482071 -243.549625 -36.968136 76 63 87
189.244485 -310.752217 -28.555202 78 65 87
185.974789 106.873997 -69.709873 148 121 131
187.371027 -68.936119 -54.793262 72 58 92
186.888176 118.032917 -74.069786 65 56 89
191.847384 -263.761083 -31.446838 70 59 79
188.985479 -30.684207 -58.468246 141 116 126
189.797008 -136.666087 -49.499416 92 66 79
188.578665 47.516119 -66.407394 58 52 77
190.074790 -138.353375 -50.356770 135 115 127
190.193927 -102.574531 -52.804279 67 54 76
136.056051 277.533992 -262.374306 215 187 170
192.194223 -220.131270 -44.687748 82 63 88
192.194223 -220.131270 -44.687748 82 63 88
191.414750 7.918972 -63.981247 66 50 67
192.014742 -140.003399 -51.959038 66 49 62
192.130077 5.880436 -64.704037 49 33 44
192.130077 5.880436 -64.704037 49 33 44
194.802511 -337.702147 -35.499954 72 58 86
192.268252 118.556365 -76.476097 59 46 68
185.280359 267.103060 -110.473347 70 57 65
192.023814 179.464873 -89.156723 46 39 72
197.388446 -340.607420 -38.398170 137 124 146
194.732082 141.487332 -80.077171 149 124 128
194.996715 3.429769 -70.251179 130 101 117
195.335639 46.305835 -72.832870 71 58 80
198.604119 -338.165084 -38.477612 76 54 78
194.797981 98.788508 -81.049919 65 52 74
198.590994 -244.608275 -46.835327 74 57 84
195.047665 119.757792 -84.116840 143 125 132
195.628142 117.584106 -83.130741 64 48 71
197.348571 -29.161430 -68.766308 137 122 143
199.470055 -142.481963 -57.120514 59 48 64
201.136017 -339.947025 -39.980412 80 57 72
196.599126 137.896391 -86.836052 69 52 73
198.763204 -69.699804 -67.422295 63 53 83
197.544742 119.317182 -84.411716 141 120 128
198.911798 -37.221298 -70.745945 122 107 139
201.704502 -245.987741 -50.829887 67 58 79
201.704502 -245.987741 -50.829887 67 58 79
199.265349 13.314368 -75.799179 145 119 137
199.610507 7.212985 -74.478149 74 64 81
200.099957 -66.619054 -68.432999 137 114 136
203.613460 -341.070668 -41.327286 143 123 128
203.668714 -272.779552 -49.151897 78 56 81
200.758386 238.226780 -93.528461 130 104 118
200.006270 136.456569 -90.844250 61 48 74
200.935233 116.324791 -88.442326 68 52 76
203.849649 -137.557844 -64.641571 142 122 134
206.106341 -342.207734 -44.637299 66 53 75
206.160498 -181.401233 -55.910873 44 37 52
203.219974 -29.545704 -75.422001 146 128 145
201.424670 229.878529 -98.266506 53 42 62
205.324566 -298.897354 -52.532864 141 117 129
205.735028 -209.812299 -58.266544 67 59 82
205.735028 -209.812299 -58.266544 67 59 82
205.242038 -69.603077 -70.073795 41 34 49
206.822717 -188.060740 -58.582687 57 47 60
206.822717 -188.060740 -58.582687 57 47 60
203.180611 117.761620 -90.247345 137 118 127
207.168722 -339.986388 -49.940681 125 108 122
203.721106 115.445002 -90.572643 65 51 75
203.721106 115.445002 -90.572643 65 51 75
207.296813 -140.625707 -65.401840 49 43 62
208.191884 -265.999047 -54.763985 67 52 73
206.542456 73.508038 -86.128426 136 114 126
208.164573 -67.413066 -72.714806 128 105 120
205.331039 198.189350 -99.035263 141 124 127
209.938157 -243.832461 -60.257530 141 112 128
209.955168 -210.537259 -62.351608 77 63 87
209.774041 -141.391817 -67.262554 59 48 64
206.542468 115.328964 -93.405914 72 56 74
208.039212 70.973852 -86.982918 56 44 62
207.766366 13.438790 -85.321045 141 115 131
210.156453 -186.932842 -65.580082 114 101 123
206.181931 226.332053 -104.401779 102 81 96
209.058440 -38.312349 -79.611206 53 42 68
210.530186 -138.743810 -69.367599 132 115 119
211.037147 -247.083942 -61.198425 68 55 71
206.668282 197.797664 -103.022099 140 119 122
211.024117 -184.458701 -66.254616 53 44 54
210.640848 -33.898742 -76.990509 65 52 74
212.378180 -341.021196 -53.399277 76 56 79
207.944620 146.358379 -98.320007 43 28 49
207.944620 146.358379 -98.320007 43 28 49
208.020437 105.656948 -95.665932 141 124 151
208.020437 105.656948 -95.665932 141 124 151
210.566163 43.077170 -86.064720 75 58 91
210.566163 43.077170 -86.064720 75 58 91
209.350061 115.137085 -95.283890 73 54 73
